x,y,z
2866.666666552,282.05128204,-8.0
2912.820512704,297.435897424,-8.0
2951.282051164,328.205128192,-8.0
2941.0256409080002,371.79487178,-8.0
2910.2564101400003,410.25641024000004,-8.0
2882.051281936,448.7179487,-8.0
2838.461538348,466.66666664800005,-8.0
2789.7435896320003,474.35897434000003,-8.0
2756.4102563,510.256410236,-8.0
2735.897435788,553.846153824,-8.0
2707.692307584,592.307692284,-8.0
2682.051281944,633.3333333080001,-8.0
2658.9743588680003,676.923076896,-8.0
2646.153846048,723.076923048,-8.0
2651.282051176,771.794871764,-8.0
2661.538461432,817.9487179160001,-8.0
2676.923076816,864.102564068,-8.0
2692.3076922,910.25641022,-8.0
2687.179487072,961.5384615,-8.0
2682.051281944,1010.2564102160001,-8.0
2679.4871793800003,1061.538461496,-8.0
2674.3589742520003,1107.692307648,-8.0
2697.435897328,1151.2820512360001,-8.0
2735.897435788,1182.051282004,-8.0
2771.794871684,1217.9487179,-8.0
2782.05128194,1264.1025640520002,-8.0
2766.666666556,1310.256410204,-8.0
2725.641025532,1335.897435844,-8.0
2679.4871793800003,1348.717948664,-8.0
2633.3333332280004,1348.717948664,-8.0
2584.615384512,1343.589743536,-8.0
2535.897435796,1348.717948664,-8.0
2492.307692208,1366.666666612,-8.0
2458.974358876,1330.769230716,-8.0
2425.641025544,1294.87179482,-8.0
2387.1794870840004,1307.69230764,-8.0
2374.358974264,1353.846153792,-8.0
2366.666666572,1402.5641025080001,-8.0
2323.0769229840002,1420.512820456,-8.0
2279.487179396,1441.025640968,-8.0
2241.025640936,1469.230769172,-8.0
2202.5641024760002,1499.9999999400002,-8.0
2164.102564016,1528.2051281440001,-8.0
2112.820512736,1528.2051281440001,-8.0
2066.6666665840003,1517.9487178880001,-8.0
2023.0769229960001,1538.4615384,-8.0
1989.7435896640002,1576.92307686,-8.0
1951.282051204,1607.692307628,-8.0
1915.384615308,1643.5897435240001,-8.0
1887.1794871040001,1684.615384548,-8.0
1887.1794871040001,1733.3333332640002,-8.0
1905.128205052,1776.9230768520001,-8.0
1917.948717872,1820.51282044,-8.0
1899.9999999240001,1866.6666665920002,-8.0
1884.6153845400002,1912.820512744,-8.0
1866.6666665920002,1956.410256332,-8.0
1889.7435896680001,1997.4358973560002,-8.0
1925.641025564,2033.333333252,-8.0
1971.7948717160002,2043.589743508,-8.0
2015.3846153040001,2061.5384614560003,-8.0
2053.846153764,2087.1794870960002,-8.0
2079.487179404,2128.20512812,-8.0
2105.128205044,2169.230769144,-8.0
2128.20512812,2212.820512732,-8.0
2120.512820428,2261.538461448,-8.0
2097.435897352,2302.5641024720003,-8.0
2071.7948717120003,2343.589743496,-8.0
2066.6666665840003,2392.3076922120003,-8.0
2074.358974276,2441.025640928,-8.0
2094.871794788,2484.615384516,-8.0
2117.948717864,2528.2051281040003,-8.0
2133.333333248,2574.3589742560002,-8.0
2128.20512812,2625.641025536,-8.0
2099.999999916,2664.1025639960003,-8.0
2051.2820512000003,2671.794871688,-8.0
2002.5641024840002,2666.66666656,-8.0
1956.410256332,2653.8461537400003,-8.0
1912.820512744,2635.897435792,-8.0
1871.7948717200002,2607.692307588,-8.0
1833.33333326,2576.92307682,-8.0
1797.435897364,2538.4615383600003,-8.0
1769.2307691600001,2499.9999999,-8.0
1741.0256409560002,2458.974358876,-8.0
1707.692307624,2420.512820416,-8.0
1671.794871728,2384.61538452,-8.0
1651.2820512160001,2341.025640932,-8.0
1633.3333332680002,2297.4358973440003,-8.0
1615.3846153200002,2253.846153756,-8.0
1594.871794808,2210.256410168,-8.0
1569.230769168,2169.230769144,-8.0
1541.025640964,2128.20512812,-8.0
1520.5128204520001,2084.615384532,-8.0
1497.4358973760002,2043.589743508,-8.0
1469.230769172,2005.1282050480002,-8.0
1443.589743532,1964.102564024,-8.0
1446.153846096,1915.384615308,-8.0
1451.282051224,1869.2307691560002,-8.0
1412.8205127640001,1841.025640952,-8.0
1374.3589743040002,1812.820512748,-8.0
1335.897435844,1779.4871794160001,-8.0
1292.307692256,1761.5384614680002,-8.0
1248.717948668,1743.5897435200002,-8.0
1217.9487179,1705.12820506,-8.0
1217.9487179,1656.4102563440001,-8.0
1223.076923028,1607.692307628,-8.0
1220.512820464,1556.410256348,-8.0
1202.564102516,1512.8205127600002,-8.0
1184.615384568,1469.230769172,-8.0
1143.5897435440002,1453.846153788,-8.0
1097.435897392,1469.230769172,-8.0
1051.28205124,1479.487179428,-8.0
1005.1282050880001,1466.666666608,-8.0
958.974358936,1453.846153788,-8.0
915.384615348,1433.333333276,-8.0
876.9230768880001,1402.5641025080001,-8.0
835.897435864,1379.4871794320002,-8.0
797.435897404,1348.717948664,-8.0
756.4102563800001,1320.51282046,-8.0
712.820512792,1297.435897384,-8.0
674.358974332,1266.6666666160002,-8.0
638.4615384360001,1235.897435848,-8.0
605.128205104,1199.999999952,-8.0
599.999999976,1151.2820512360001,-8.0
605.128205104,1102.56410252,-8.0
599.999999976,1053.846153804,-8.0
584.615384592,1007.6923076520001,-8.0
561.538461516,964.102564064,-8.0
543.589743568,920.512820476,-8.0
548.717948696,871.7948717600001,-8.0
579.4871794640001,835.897435864,-8.0
625.641025616,828.2051281720001,-8.0
669.230769204,846.15384612,-8.0
715.384615356,833.3333333,-8.0
735.897435868,789.743589712,-8.0
746.1538461240001,743.58974356,-8.0
769.2307692,699.9999999720001,-8.0
787.179487148,653.84615382,-8.0
807.6923076600001,610.256410232,-8.0
848.717948684,582.0512820280001,-8.0
894.871794836,571.7948717720001,-8.0
946.1538461160001,569.2307692080001,-8.0
992.3076922680001,551.28205126,-8.0
1033.3333332920001,525.64102562,-8.0
1079.487179444,507.692307672,-8.0
1120.512820468,484.615384596,-8.0
1158.9743589280001,451.282051264,-8.0
1192.30769226,415.384615368,-8.0
1235.897435848,394.871794856,-8.0
1282.0512820000001,384.6153846,-8.0
1325.641025588,364.102564088,-8.0
1371.79487174,348.71794870400004,-8.0
1417.948717892,333.33333332,-8.0
1466.666666608,328.205128192,-8.0
1515.3846153240002,333.33333332,-8.0
1564.10256404,341.025641012,-8.0
1607.692307628,364.102564088,-8.0
1646.1538460880001,394.871794856,-8.0
1687.179487112,420.512820496,-8.0
1725.641025572,453.846153828,-8.0
1764.1025640320001,484.615384596,-8.0
1797.435897364,523.076923056,-8.0
1833.33333326,556.410256388,-8.0
1871.7948717200002,584.615384592,-8.0
1892.3076922320001,628.2051281800001,-8.0
1897.4358973600001,676.923076896,-8.0
1930.769230692,710.256410228,-8.0
1974.3589742800002,733.333333304,-8.0
2023.0769229960001,733.333333304,-8.0
2066.6666665840003,715.384615356,-8.0
2105.128205044,684.615384588,-8.0
2143.589743504,653.84615382,-8.0
2182.0512819640003,623.076923052,-8.0
2225.641025552,605.128205104,-8.0
2246.153846064,561.538461516,-8.0
2266.666666576,517.9487179280001,-8.0
2302.5641024720003,479.487179468,-8.0
2341.025640932,446.153846136,-8.0
2379.487179392,417.948717932,-8.0
2417.9487178520003,389.743589728,-8.0
2456.410256312,356.410256396,-8.0
2494.871794772,323.076923064,-8.0
2533.3333332320003,294.87179486,-8.0
2571.794871692,261.538461528,-8.0
2599.999999896,220.51282050400002,-8.0
2633.3333332280004,187.17948717200002,-8.0
2682.051281944,179.48717948,-8.0
2705.12820502,148.717948712,-6.0
2751.282051172,161.538461532,-6.0
2794.8717947600003,184.615384608,-6.0
2841.025640912,194.871794864,-6.0
2889.7435896280003,199.999999992,-6.0
2941.0256409080002,202.56410255600002,-6.0
2984.6153844960004,225.641025632,-6.0
3020.5128203920003,258.97435896400003,-6.0
3030.7692306480003,305.128205116,-6.0
3007.692307572,346.15384614000004,-6.0
2969.230769112,382.05128203600003,-6.0
2941.0256409080002,420.512820496,-6.0
2912.820512704,458.974358956,-6.0
2876.923076808,492.307692288,-6.0
2833.33333322,510.256410236,-6.0
2787.179487068,528.205128184,-6.0
2758.9743588640004,566.666666644,-6.0
2730.76923066,605.128205104,-6.0
2707.692307584,646.153846128,-6.0
2689.7435896360003,692.3076922800001,-6.0
2679.4871793800003,738.461538432,-6.0
2689.7435896360003,784.615384584,-6.0
2697.435897328,833.3333333,-6.0
2702.564102456,882.0512820160001,-6.0
2702.564102456,930.7692307320001,-6.0
2702.564102456,979.487179448,-6.0
2692.3076922,1025.6410256000001,-6.0
2692.3076922,1076.92307688,-6.0
2702.564102456,1123.076923032,-6.0
2741.025640916,1153.8461538000001,-6.0
2776.923076812,1187.179487132,-6.0
2802.564102452,1228.205128156,-6.0
2817.948717836,1274.3589743080001,-6.0
2823.076922964,1323.076923024,-6.0
2835.897435784,1369.230769176,-6.0
2858.97435886,1410.2564102000001,-6.0
2879.4871793720004,1453.846153788,-6.0
2884.6153845000003,1502.5641025040002,-6.0
2841.025640912,1494.8717948120002,-6.0
2799.9999998880003,1466.666666608,-6.0
2761.538461428,1435.89743584,-6.0
2723.076922968,1399.9999999440001,-6.0
2684.6153845080003,1369.230769176,-6.0
2635.897435792,1364.102564048,-6.0
2584.615384512,1361.538461484,-6.0
2535.897435796,1371.79487174,-6.0
2497.435897336,1402.5641025080001,-6.0
2461.53846144,1438.461538404,-6.0
2412.8205127240003,1446.153846096,-6.0
2366.666666572,1430.769230712,-6.0
2320.51282042,1443.589743532,-6.0
2276.9230768320003,1466.666666608,-6.0
2238.461538372,1494.8717948120002,-6.0
2205.12820504,1528.2051281440001,-6.0
2158.974358888,1543.589743528,-6.0
2110.256410172,1548.717948656,-6.0
2058.974358892,1551.28205122,-6.0
2017.9487178680001,1574.358974296,-6.0
1982.0512819720002,1607.692307628,-6.0
1948.71794864,1643.5897435240001,-6.0
1915.384615308,1679.48717942,-6.0
1897.4358973600001,1717.94871788,-6.0
1930.769230692,1756.4102563400002,-6.0
1935.89743582,1805.128205056,-6.0
1925.641025564,1853.8461537720002,-6.0
1907.692307616,1897.4358973600001,-6.0
1889.7435896680001,1941.025640948,-6.0
1912.820512744,1984.6153845360002,-6.0
1958.974358896,2002.5641024840002,-6.0
2005.1282050480002,2015.3846153040001,-6.0
2048.717948636,2035.897435816,-6.0
2076.9230768400002,2074.358974276,-6.0
2105.128205044,2115.3846153,-6.0
2138.461538376,2153.84615376,-6.0
2161.5384614520003,2197.4358973480003,-6.0
2166.6666665800003,2246.153846064,-6.0
2143.589743504,2287.1794870880003,-6.0
2112.820512736,2325.641025548,-6.0
2094.871794788,2369.230769136,-6.0
2110.256410172,2415.384615288,-6.0
2135.897435812,2456.410256312,-6.0
2156.4102563240003,2499.9999999,-6.0
2174.358974272,2543.5897434880003,-6.0
2179.4871794,2592.307692204,-6.0
2171.7948717080003,2641.02564092,-6.0
2156.4102563240003,2687.179487072,-6.0
2146.153846068,2733.333333224,-6.0
2143.589743504,2784.6153845040003,-6.0
2138.461538376,2833.33333322,-6.0
2094.871794788,2820.5128204000002,-6.0
2053.846153764,2792.307692196,-6.0
2017.9487178680001,2753.8461537360004,-6.0
1979.4871794080002,2725.641025532,-6.0
1941.025640948,2697.435897328,-6.0
1899.9999999240001,2674.3589742520003,-6.0
1856.4102563360002,2651.282051176,-6.0
1817.948717876,2617.948717844,-6.0
1779.4871794160001,2582.051281948,-6.0
1748.7179486480002,2543.5897434880003,-6.0
1723.076923008,2502.564102464,-6.0
1694.871794804,2464.102564004,-6.0
1661.538461472,2425.641025544,-6.0
1633.3333332680002,2387.1794870840004,-6.0
1615.3846153200002,2343.589743496,-6.0
1592.307692244,2302.5641024720003,-6.0
1571.794871732,2258.974358884,-6.0
1553.846153784,2215.384615296,-6.0
1541.025640964,2169.230769144,-6.0
1512.8205127600002,2128.20512812,-6.0
1476.923076864,2094.871794788,-6.0
1438.461538404,2066.6666665840003,-6.0
1410.2564102000001,2025.6410255600001,-6.0
1402.5641025080001,1976.9230768440002,-6.0
1405.1282050720001,1928.205128128,-6.0
1423.07692302,1884.6153845400002,-6.0
1389.7435896880002,1848.717948644,-6.0
1348.717948664,1823.076923004,-6.0
1305.128205076,1805.128205056,-6.0
1261.5384614880002,1787.179487108,-6.0
1223.076923028,1761.5384614680002,-6.0
1197.435897388,1720.512820444,-6.0
1187.179487132,1674.358974292,-6.0
1202.564102516,1628.2051281400002,-6.0
1205.12820508,1579.487179424,-6.0
1189.743589696,1533.3333332720001,-6.0
1151.2820512360001,1517.9487178880001,-6.0
1107.692307648,1533.3333332720001,-6.0
1064.10256406,1512.8205127600002,-6.0
1017.948717908,1497.4358973760002,-6.0
971.794871756,1484.615384556,-6.0
925.6410256040001,1471.794871736,-6.0
887.1794871440001,1443.589743532,-6.0
848.717948684,1420.512820456,-6.0
812.8205127880001,1389.7435896880002,-6.0
771.794871764,1364.102564048,-6.0
733.333333304,1335.897435844,-6.0
692.3076922800001,1310.256410204,-6.0
653.84615382,1279.4871794360001,-6.0
615.38461536,1251.282051232,-6.0
579.4871794640001,1217.9487179,-6.0
571.7948717720001,1169.230769184,-6.0
571.7948717720001,1117.948717904,-6.0
571.7948717720001,1066.666666624,-6.0
556.410256388,1020.512820472,-6.0
533.333333312,979.487179448,-6.0
505.12820510800003,941.0256409880001,-6.0
487.17948716,897.4358974,-6.0
489.743589724,846.15384612,-6.0
497.43589741600005,797.435897404,-6.0
523.076923056,756.4102563800001,-6.0
571.7948717720001,751.2820512520001,-6.0
620.512820488,751.2820512520001,-6.0
643.5897435640001,710.256410228,-6.0
633.3333333080001,664.102564076,-6.0
651.282051256,620.512820488,-6.0
682.051282024,582.0512820280001,-6.0
717.94871792,546.153846132,-6.0
758.9743589440001,520.5128204920001,-6.0
805.128205096,510.256410236,-6.0
853.846153812,515.3846153640001,-6.0
899.999999964,525.64102562,-6.0
946.1538461160001,525.64102562,-6.0
994.8717948320001,517.9487179280001,-6.0
1041.0256409840001,499.99999998000004,-6.0
1082.051282008,476.923076904,-6.0
1120.512820468,443.58974357200003,-6.0
1156.4102563640001,405.12820511200005,-6.0
1199.999999952,384.6153846,-6.0
1246.153846104,369.230769216,-6.0
1289.7435896920001,348.71794870400004,-6.0
1333.33333328,325.641025628,-6.0
1379.4871794320002,307.69230768,-6.0
1425.641025584,292.307692296,-6.0
1471.794871736,276.923076912,-6.0
1523.0769230160001,276.923076912,-6.0
1569.230769168,287.17948716800004,-6.0
1610.256410192,315.38461537200004,-6.0
1646.1538460880001,351.28205126800003,-6.0
1687.179487112,376.92307690800004,-6.0
1730.7692307000002,397.43589742,-6.0
1766.6666665960001,430.769230752,-6.0
1799.999999928,466.66666664800005,-6.0
1815.384615312,512.8205128000001,-6.0
1853.8461537720002,541.025641004,-6.0
1894.8717947960001,569.2307692080001,-6.0
1930.769230692,605.128205104,-6.0
1966.666666588,638.4615384360001,-6.0
2002.5641024840002,671.794871768,-6.0
2048.717948636,684.615384588,-6.0
2092.307692224,666.66666664,-6.0
2128.20512812,635.8974358720001,-6.0
2148.717948632,592.307692284,-6.0
2169.230769144,548.717948696,-6.0
2207.6923076040002,520.5128204920001,-6.0
2246.153846064,492.307692288,-6.0
2284.615384524,461.53846152,-6.0
2320.51282042,425.641025624,-6.0
2361.538461444,402.564102548,-6.0
2399.999999904,371.79487178,-6.0
2438.4615383640003,341.025641012,-6.0
2476.923076824,310.256410244,-6.0
2515.384615284,276.923076912,-6.0
2548.7179486160003,241.025641016,-6.0
2582.051281948,205.12820512000002,-6.0
2620.512820408,174.35897435200002,-6.0
2661.538461432,151.282051276,-6.0
2764.1025639920003,82.051282048,-4.0
2810.2564101440003,92.307692304,-4.0
2858.97435886,97.435897432,-4.0
2910.2564101400003,99.999999996,-4.0
2958.974358856,105.128205124,-4.0
3005.1282050080004,120.512820508,-4.0
3051.2820511600003,130.769230764,-4.0
3102.56410244,130.769230764,-4.0
3151.2820511560003,125.64102563600001,-4.0
3187.1794870520002,151.282051276,-4.0
3179.48717936,199.999999992,-4.0
3169.230769104,246.153846144,-4.0
3151.2820511560003,289.74358973200003,-4.0
3123.076922952,330.769230756,-4.0
3084.615384492,364.102564088,-4.0
3046.1538460320003,397.43589742,-4.0
3007.692307572,430.769230752,-4.0
2971.794871676,461.53846152,-4.0
2938.461538344,499.99999998000004,-4.0
2899.9999998840003,533.333333312,-4.0
2861.538461424,569.2307692080001,-4.0
2830.769230656,605.128205104,-4.0
2787.179487068,628.2051281800001,-4.0
2779.4871793760003,676.923076896,-4.0
2771.794871684,725.641025612,-4.0
2776.923076812,776.923076892,-4.0
2771.794871684,823.0769230440001,-4.0
2753.8461537360004,869.2307691960001,-4.0
2748.7179486080004,917.948717912,-4.0
2753.8461537360004,966.666666628,-4.0
2730.76923066,1010.2564102160001,-4.0
2725.641025532,1056.410256368,-4.0
2764.1025639920003,1084.615384572,-4.0
2802.564102452,1117.948717904,-4.0
2838.461538348,1153.8461538000001,-4.0
2869.2307691160004,1192.30769226,-4.0
2882.051281936,1238.461538412,-4.0
2884.6153845000003,1289.7435896920001,-4.0
2910.2564101400003,1328.205128152,-4.0
2933.333333216,1369.230769176,-4.0
2941.0256409080002,1417.948717892,-4.0
2958.974358856,1461.53846148,-4.0
2994.8717947520004,1499.9999999400002,-4.0
3012.8205127,1543.589743528,-4.0
3035.8974357760003,1587.179487116,-4.0
3084.615384492,1592.307692244,-4.0
3130.7692306440003,1602.5641025,-4.0
3171.7948716680003,1628.2051281400002,-4.0
3210.256410128,1656.4102563440001,-4.0
3241.0256408960004,1692.30769224,-4.0
3246.1538460240004,1738.4615383920002,-4.0
3212.820512692,1771.7948717240001,-4.0
3164.102563976,1779.4871794160001,-4.0
3115.3846152600004,1771.7948717240001,-4.0
3071.794871672,1753.8461537760002,-4.0
3033.333333212,1725.641025572,-4.0
2997.435897316,1692.30769224,-4.0
2979.487179368,1648.7179486520001,-4.0
2935.8974357800003,1633.3333332680002,-4.0
2889.7435896280003,1623.0769230120002,-4.0
2851.282051168,1594.871794808,-4.0
2812.820512708,1561.538461476,-4.0
2774.3589742480003,1530.7692307080001,-4.0
2733.333333224,1507.6923076320002,-4.0
2684.6153845080003,1499.9999999400002,-4.0
2633.3333332280004,1502.5641025040002,-4.0
2589.74358964,1520.5128204520001,-4.0
2546.153846052,1538.4615384,-4.0
2517.9487178480003,1574.358974296,-4.0
2499.9999999,1620.5128204480002,-4.0
2476.923076824,1661.538461472,-4.0
2430.769230672,1676.923076856,-4.0
2382.051281956,1676.923076856,-4.0
2335.897435804,1687.179487112,-4.0
2292.3076922160003,1707.692307624,-4.0
2253.846153756,1741.0256409560002,-4.0
2251.282051192,1784.615384544,-4.0
2297.4358973440003,1774.3589742880001,-4.0
2341.025640932,1756.4102563400002,-4.0
2387.1794870840004,1741.0256409560002,-4.0
2433.3333332360003,1730.7692307000002,-4.0
2484.615384516,1730.7692307000002,-4.0
2517.9487178480003,1751.2820512120002,-4.0
2494.871794772,1794.8717948,-4.0
2456.410256312,1828.205128132,-4.0
2430.769230672,1869.2307691560002,-4.0
2466.666666568,1884.6153845400002,-4.0
2512.8205127200004,1871.7948717200002,-4.0
2543.5897434880003,1887.1794871040001,-4.0
2528.2051281040003,1933.333333256,-4.0
2502.564102464,1974.3589742800002,-4.0
2507.6923075920004,2023.0769229960001,-4.0
2464.102564004,2023.0769229960001,-4.0
2423.0769229800003,1994.8717947920002,-4.0
2384.61538452,1964.102564024,-4.0
2341.025640932,1971.7948717160002,-4.0
2312.8205127280003,2010.2564101760001,-4.0
2302.5641024720003,2051.2820512000003,-4.0
2348.717948624,2038.46153838,-4.0
2397.4358973400003,2035.897435816,-4.0
2430.769230672,2066.6666665840003,-4.0
2435.8974358,2115.3846153,-4.0
2438.4615383640003,2166.6666665800003,-4.0
2441.025640928,2217.94871786,-4.0
2441.025640928,2269.23076914,-4.0
2399.999999904,2282.0512819600003,-4.0
2384.61538452,2238.461538372,-4.0
2379.487179392,2189.743589656,-4.0
2343.589743496,2176.9230768360003,-4.0
2330.769230676,2223.076922988,-4.0
2325.641025548,2271.7948717040003,-4.0
2320.51282042,2320.51282042,-4.0
2315.384615292,2369.230769136,-4.0
2299.999999908,2415.384615288,-4.0
2289.743589652,2461.53846144,-4.0
2276.9230768320003,2507.6923075920004,-4.0
2274.358974268,2556.410256308,-4.0
2269.23076914,2607.692307588,-4.0
2261.538461448,2656.410256304,-4.0
2251.282051192,2702.564102456,-4.0
2253.846153756,2753.8461537360004,-4.0
2276.9230768320003,2797.435897324,-4.0
2307.6923076000003,2835.897435784,-4.0
2330.769230676,2879.4871793720004,-4.0
2333.3333332400002,2928.205128088,-4.0
2312.8205127280003,2971.794871676,-4.0
2274.358974268,2999.9999998800004,-4.0
2228.205128116,3010.2564101360003,-4.0
2179.4871794,3005.1282050080004,-4.0
2135.897435812,2984.6153844960004,-4.0
2097.435897352,2951.282051164,-4.0
2058.974358892,2917.948717832,-4.0
2023.0769229960001,2882.051281936,-4.0
1984.6153845360002,2846.15384604,-4.0
1946.153846076,2812.820512708,-4.0
1910.25641018,2776.923076812,-4.0
1874.3589742840002,2743.58974348,-4.0
1830.769230696,2725.641025532,-4.0
1787.179487108,2707.692307584,-4.0
1753.8461537760002,2674.3589742520003,-4.0
1717.94871788,2635.897435792,-4.0
1682.051281984,2597.435897332,-4.0
1651.2820512160001,2558.9743588720003,-4.0
1628.2051281400002,2517.9487178480003,-4.0
1599.999999936,2479.487179388,-4.0
1569.230769168,2441.025640928,-4.0
1551.28205122,2397.4358973400003,-4.0
1541.025640964,2351.282051188,-4.0
1520.5128204520001,2307.6923076000003,-4.0
1497.4358973760002,2264.102564012,-4.0
1487.17948712,2217.94871786,-4.0
1458.974358916,2176.9230768360003,-4.0
1420.512820456,2146.153846068,-4.0
1379.4871794320002,2120.512820428,-4.0
1343.589743536,2084.615384532,-4.0
1323.076923024,2041.025640944,-4.0
1312.820512768,1994.8717947920002,-4.0
1315.384615332,1943.589743512,-4.0
1333.33333328,1899.9999999240001,-4.0
1297.435897384,1882.0512819760002,-4.0
1256.4102563600002,1856.4102563360002,-4.0
1217.9487179,1823.076923004,-4.0
1182.051282004,1787.179487108,-4.0
1158.9743589280001,1746.1538460840002,-4.0
1151.2820512360001,1697.435897368,-4.0
1143.5897435440002,1648.7179486520001,-4.0
1102.56410252,1630.7692307040002,-4.0
1056.410256368,1615.3846153200002,-4.0
1015.384615344,1589.74358968,-4.0
971.794871756,1569.230769168,-4.0
930.7692307320001,1543.589743528,-4.0
892.307692272,1515.3846153240002,-4.0
853.846153812,1479.487179428,-4.0
815.3846153520001,1448.71794866,-4.0
779.487179456,1412.8205127640001,-4.0
735.897435868,1389.7435896880002,-4.0
689.7435897160001,1379.4871794320002,-4.0
646.153846128,1356.410256356,-4.0
610.256410232,1323.076923024,-4.0
569.2307692080001,1294.87179482,-4.0
533.333333312,1264.1025640520002,-4.0
510.256410236,1223.076923028,-4.0
502.56410254400004,1174.358974312,-4.0
502.56410254400004,1123.076923032,-4.0
502.56410254400004,1074.358974316,-4.0
489.743589724,1028.2051281640001,-4.0
448.7179487,1002.5641025240001,-4.0
415.384615368,969.230769192,-4.0
402.564102548,923.07692304,-4.0
392.307692292,876.9230768880001,-4.0
389.743589728,825.6410256080001,-4.0
392.307692292,774.358974328,-4.0
382.05128203600003,725.641025612,-4.0
358.97435896,684.615384588,-4.0
346.15384614000004,638.4615384360001,-4.0
358.97435896,592.307692284,-4.0
389.743589728,553.846153824,-4.0
417.948717932,512.8205128000001,-4.0
425.641025624,464.10256408400005,-4.0
433.33333331600005,415.384615368,-4.0
471.79487177600004,389.743589728,-4.0
517.9487179280001,371.79487178,-4.0
561.538461516,353.846153832,-4.0
607.692307668,335.897435884,-4.0
651.282051256,315.38461537200004,-4.0
697.4358974080001,302.564102552,-4.0
743.58974356,292.307692296,-4.0
792.307692276,289.74358973200003,-4.0
835.897435864,307.69230768,-4.0
861.538461504,348.71794870400004,-4.0
882.0512820160001,392.307692292,-4.0
902.564102528,435.89743588000005,-4.0
948.7179486800001,448.7179487,-4.0
994.8717948320001,435.89743588000005,-4.0
1038.4615384200001,412.82051280400003,-4.0
1076.92307688,379.48717947200004,-4.0
1110.256410212,343.58974357600005,-4.0
1148.7179486720001,312.820512808,-4.0
1192.30769226,294.87179486,-4.0
1238.461538412,279.487179476,-4.0
1284.6153845640001,264.102564092,-4.0
1330.769230716,248.71794870800002,-4.0
1371.79487174,225.641025632,-4.0
1412.8205127640001,197.435897428,-4.0
1453.846153788,174.35897435200002,-4.0
1499.9999999400002,158.97435896800002,-4.0
1546.153846092,143.58974358400002,-4.0
1594.871794808,138.461538456,-4.0
1643.5897435240001,146.153846148,-4.0
1682.051281984,174.35897435200002,-4.0
1712.820512752,212.820512812,-4.0
1730.7692307000002,256.41025640000004,-4.0
1735.8974358280002,305.128205116,-4.0
1764.1025640320001,343.58974357600005,-4.0
1797.435897364,382.05128203600003,-4.0
1835.897435824,412.82051280400003,-4.0
1864.1025640280002,451.282051264,-4.0
1876.9230768480002,497.43589741600005,-4.0
1923.076923,510.256410236,-4.0
1969.230769152,520.5128204920001,-4.0
2015.3846153040001,535.897435876,-4.0
2053.846153764,507.692307672,-4.0
2092.307692224,474.35897434000003,-4.0
2133.333333248,448.7179487,-4.0
2174.358974272,423.07692306,-4.0
2220.512820424,410.25641024000004,-4.0
2264.102564012,389.743589728,-4.0
2305.128205036,361.538461524,-4.0
2343.589743496,328.205128192,-4.0
2382.051281956,299.999999988,-4.0
2420.512820416,266.666666656,-4.0
2458.974358876,233.33333332400002,-4.0
2497.435897336,205.12820512000002,-4.0
2538.4615383600003,176.923076916,-4.0
2576.92307682,146.153846148,-4.0
2615.38461528,115.38461538,-4.0
2658.9743588680003,94.87179486800001,-4.0
2705.12820502,82.051282048,-4.0
2756.4102563,82.051282048,-4.0
2718.8811187723636,82.051282048,-3.873079659653619
2748.1740480641215,82.051282048,-3.8647208082728937
2631.0023308970913,111.62911162464647,-4.655124539356241
2660.2952601888487,111.62911162464647,-5.002346797964242
2689.588189480606,111.62911162464647,-5.120819216154558
2718.8811187723636,111.62911162464647,-5.07862591090659
2748.1740480641215,111.62911162464647,-4.943513118594369
2777.466977355879,111.62911162464647,-4.748798050989496
2806.7599066476364,111.62911162464647,-4.538778181952405
2836.0528359393943,111.62911162464647,-4.358304387615475
2865.3457652311517,111.62911162464647,-4.237060437166329
2894.638694522909,111.62911162464647,-4.1823893508679495
2923.9316238146666,111.62911162464647,-4.193443580046491
2953.2245531064245,111.62911162464647,-4.246679361992675
1576.4568763938182,141.20694120129295,-3.423907477811058
1605.749805685576,141.20694120129295,-3.258019539546103
2601.7094016053334,141.20694120129295,-5.257170391422872
2631.0023308970913,141.20694120129295,-5.950683811987091
2660.2952601888487,141.20694120129295,-6.363844343369307
2689.588189480606,141.20694120129295,-6.478966833873658
2718.8811187723636,141.20694120129295,-6.343822646519776
2748.1740480641215,141.20694120129295,-6.062295408012261
2777.466977355879,141.20694120129295,-5.717774756055984
2806.7599066476364,141.20694120129295,-5.375450267020032
2836.0528359393943,141.20694120129295,-5.094888224322634
2865.3457652311517,141.20694120129295,-4.915461118789868
2894.638694522909,141.20694120129295,-4.83350662530998
2923.9316238146666,141.20694120129295,-4.820757840227563
2953.2245531064245,141.20694120129295,-4.840977905666139
2982.517482398182,141.20694120129295,-4.856487887376241
3011.8104116899394,141.20694120129295,-4.841360730459878
3041.1033409816973,141.20694120129295,-4.783528606412311
3070.396270273455,141.20694120129295,-4.682538547428271
3099.689199565212,141.20694120129295,-4.544657708555752
3128.9821288569697,141.20694120129295,-4.376391136422881
3158.2750581487276,141.20694120129295,-4.178624608449587
1488.5780885185457,170.7847707779394,-4.131845226166743
1517.871017810303,170.7847707779394,-4.1623982836331965
1547.1639471020608,170.7847707779394,-4.082026671415609
1576.4568763938182,170.7847707779394,-3.945698880691235
1605.749805685576,170.7847707779394,-3.7760256459533883
1635.0427349773333,170.7847707779394,-3.5788162430383323
1664.335664269091,170.7847707779394,-3.3492360705027284
2572.416472313576,170.7847707779394,-5.382479027981636
2601.7094016053334,170.7847707779394,-6.4108089199103375
2631.0023308970913,170.7847707779394,-7.213919931126058
2660.2952601888487,170.7847707779394,-7.690924128204086
2689.588189480606,170.7847707779394,-7.799242774693402
2718.8811187723636,170.7847707779394,-7.557060077894019
2748.1740480641215,170.7847707779394,-7.140760203057546
2777.466977355879,170.7847707779394,-6.657666649194362
2806.7599066476364,170.7847707779394,-6.186563455776278
2836.0528359393943,170.7847707779394,-5.80528355342754
2865.3457652311517,170.7847707779394,-5.580379430982593
2894.638694522909,170.7847707779394,-5.480866466313349
2923.9316238146666,170.7847707779394,-5.445944154356949
2953.2245531064245,170.7847707779394,-5.430339485117859
2982.517482398182,170.7847707779394,-5.397524520315486
3011.8104116899394,170.7847707779394,-5.321813486823945
3041.1033409816973,170.7847707779394,-5.192376028608947
3070.396270273455,170.7847707779394,-5.014436533014633
3099.689199565212,170.7847707779394,-4.802280982078335
3128.9821288569697,170.7847707779394,-4.568239223902547
3158.2750581487276,170.7847707779394,-4.315204301542052
1429.9922299350303,200.36260035458588,-4.299857021086716
1459.285159226788,200.36260035458588,-4.525084510225709
1488.5780885185457,200.36260035458588,-4.653289372195546
1517.871017810303,200.36260035458588,-4.666084404466295
1547.1639471020608,200.36260035458588,-4.5816346095506395
1576.4568763938182,200.36260035458588,-4.442006528444364
1605.749805685576,200.36260035458588,-4.273753606169661
1635.0427349773333,200.36260035458588,-4.08189256032827
1664.335664269091,200.36260035458588,-3.858682268067874
1693.6285935608487,200.36260035458588,-3.589823965596901
2513.8306137300606,200.36260035458588,-3.9724242694392378
2543.1235430218185,200.36260035458588,-5.17272599442189
2572.416472313576,200.36260035458588,-6.372493175938617
2601.7094016053334,200.36260035458588,-7.4552115620224075
2631.0023308970913,200.36260035458588,-8.303988623956474
2660.2952601888487,200.36260035458588,-8.827989282588229
2689.588189480606,200.36260035458588,-8.916292358147894
2718.8811187723636,200.36260035458588,-8.615433053511591
2748.1740480641215,200.36260035458588,-8.116482768314805
2777.466977355879,200.36260035458588,-7.536450666249737
2806.7599066476364,200.36260035458588,-6.967791857565631
2836.0528359393943,200.36260035458588,-6.503946370638798
2865.3457652311517,200.36260035458588,-6.2457610898973615
2894.638694522909,200.36260035458588,-6.1242394899327515
2923.9316238146666,200.36260035458588,-6.058328911734899
2953.2245531064245,200.36260035458588,-5.997907098817477
2982.517482398182,200.36260035458588,-5.905897654151105
3011.8104116899394,200.36260035458588,-5.75564391535735
3041.1033409816973,200.36260035458588,-5.535956434694897
3070.396270273455,200.36260035458588,-5.261272596431285
3099.689199565212,200.36260035458588,-4.958910363204102
3128.9821288569697,200.36260035458588,-4.647564482655192
3158.2750581487276,200.36260035458588,-4.330804812905133
1371.4063713515152,229.94042993123236,-4.282490804076219
1400.6993006432729,229.94042993123236,-4.634351595844689
1429.9922299350303,229.94042993123236,-4.919099652873385
1459.285159226788,229.94042993123236,-5.116781004942732
1488.5780885185457,229.94042993123236,-5.20988195384777
1517.871017810303,229.94042993123236,-5.1936807309164585
1547.1639471020608,229.94042993123236,-5.089949852053336
1576.4568763938182,229.94042993123236,-4.939981140722785
1605.749805685576,229.94042993123236,-4.770974759578454
1635.0427349773333,229.94042993123236,-4.5803978953458335
1664.335664269091,229.94042993123236,-4.3560991941261245
1693.6285935608487,229.94042993123236,-4.085561822612769
2484.537684438303,229.94042993123236,-3.895098078529908
2513.8306137300606,229.94042993123236,-4.945916277520495
2543.1235430218185,229.94042993123236,-6.147849377080618
2572.416472313576,229.94042993123236,-7.345741886267963
2601.7094016053334,229.94042993123236,-8.408086143012648
2631.0023308970913,229.94042993123236,-9.22621564724065
2660.2952601888487,229.94042993123236,-9.71026310964207
2689.588189480606,229.94042993123236,-9.78487448053811
2718.8811187723636,229.94042993123236,-9.491810501214639
2748.1740480641215,229.94042993123236,-8.969508133169686
2777.466977355879,229.94042993123236,-8.342091328405278
2806.7599066476364,229.94042993123236,-7.719237192121253
2836.0528359393943,229.94042993123236,-7.221377802846094
2865.3457652311517,229.94042993123236,-6.922665189181607
2894.638694522909,229.94042993123236,-6.756305209399072
2923.9316238146666,229.94042993123236,-6.641039917029418
2953.2245531064245,229.94042993123236,-6.5196332374750625
2982.517482398182,229.94042993123236,-6.353627650402555
3011.8104116899394,229.94042993123236,-6.115977798746646
3041.1033409816973,229.94042993123236,-5.786970631247957
3070.396270273455,229.94042993123236,-5.3978497104385195
3099.689199565212,229.94042993123236,-4.997511642103032
3128.9821288569697,229.94042993123236,-4.609268899026305
3158.2750581487276,229.94042993123236,-4.235997804311612
1312.820512768,259.51825950787884,-4.162142941690384
1342.1134420597577,259.51825950787884,-4.601554114924934
1371.4063713515152,259.51825950787884,-5.002133448956743
1400.6993006432729,259.51825950787884,-5.3462488906710455
1429.9922299350303,259.51825950787884,-5.615243916549925
1459.285159226788,259.51825950787884,-5.788929599258134
1488.5780885185457,259.51825950787884,-5.851275447998383
1517.871017810303,259.51825950787884,-5.800108233807059
1547.1639471020608,259.51825950787884,-5.658755130751129
1576.4568763938182,259.51825950787884,-5.4820509205989385
1605.749805685576,259.51825950787884,-5.304663297978604
1635.0427349773333,259.51825950787884,-5.099299393706755
1664.335664269091,259.51825950787884,-4.847890635828531
1693.6285935608487,259.51825950787884,-4.545732317175116
1722.9215228526061,259.51825950787884,-4.180477424707917
2455.2447551465457,259.51825950787884,-4.069772456735462
2484.537684438303,259.51825950787884,-4.958671713919273
2513.8306137300606,259.51825950787884,-6.009919413525535
2543.1235430218185,259.51825950787884,-7.17151605971672
2572.416472313576,259.51825950787884,-8.320516770044875
2601.7094016053334,259.51825950787884,-9.317453253402492
2631.0023308970913,259.51825950787884,-10.060866850879183
2660.2952601888487,259.51825950787884,-10.478792576023473
2689.588189480606,259.51825950787884,-10.529066200097214
2718.8811187723636,259.51825950787884,-10.242091454117917
2748.1740480641215,259.51825950787884,-9.716416002181562
2777.466977355879,259.51825950787884,-9.071928156800993
2806.7599066476364,259.51825950787884,-8.425445372279297
2836.0528359393943,259.51825950787884,-7.89996482851629
2865.3457652311517,259.51825950787884,-7.564302180234206
2894.638694522909,259.51825950787884,-7.341928546146202
2923.9316238146666,259.51825950787884,-7.1617091084340325
2953.2245531064245,259.51825950787884,-6.960299257849826
2982.517482398182,259.51825950787884,-6.696130893294048
3011.8104116899394,259.51825950787884,-6.353252762745659
3041.1033409816973,259.51825950787884,-5.898839659114471
3070.396270273455,259.51825950787884,-5.392438241091835
3099.689199565212,259.51825950787884,-4.902105100399007
3128.9821288569697,259.51825950787884,-4.4506133248741016
3158.2750581487276,259.51825950787884,-4.03702164702216
1224.9417248927275,289.09608908452526,-3.631292587346604
1254.234654184485,289.09608908452526,-4.0824733081975575
1283.5275834762424,289.09608908452526,-4.540030696523037
1312.820512768,289.09608908452526,-4.999439347735272
1342.1134420597577,289.09608908452526,-5.434138813034361
1371.4063713515152,289.09608908452526,-5.8232727731476475
1400.6993006432729,289.09608908452526,-6.155116092303652
1429.9922299350303,289.09608908452526,-6.411925700550181
1459.285159226788,289.09608908452526,-6.571469309830708
1488.5780885185457,289.09608908452526,-6.615102975866356
1517.871017810303,289.09608908452526,-6.536779869458882
1547.1639471020608,289.09608908452526,-6.355357464073594
1576.4568763938182,289.09608908452526,-6.136678403719754
1605.749805685576,289.09608908452526,-5.934007893137756
1635.0427349773333,289.09608908452526,-5.679794821861298
1664.335664269091,289.09608908452526,-5.357753923902441
1693.6285935608487,289.09608908452526,-4.971078206117098
1722.9215228526061,289.09608908452526,-4.51825388253266
2396.6588965630303,289.09608908452526,-3.672727973869158
2425.9518258547882,289.09608908452526,-4.392620090313454
2455.2447551465457,289.09608908452526,-5.1732661727162474
2484.537684438303,289.09608908452526,-6.066909752638959
2513.8306137300606,289.09608908452526,-7.097931275004666
2543.1235430218185,289.09608908452526,-8.204908526210804
2572.416472313576,289.09608908452526,-9.290032435711609
2601.7094016053334,289.09608908452526,-10.203284941852028
2631.0023308970913,289.09608908452526,-10.86409840494395
2660.2952601888487,289.09608908452526,-11.21593861296542
2689.588189480606,289.09608908452526,-11.225927301114455
2718.8811187723636,289.09608908452526,-10.916943159348975
2748.1740480641215,289.09608908452526,-10.37208769750205
2777.466977355879,289.09608908452526,-9.711048361981437
2806.7599066476364,289.09608908452526,-9.057798977917823
2836.0528359393943,289.09608908452526,-8.513253816738533
2865.3457652311517,289.09608908452526,-8.116105477869045
2894.638694522909,289.09608908452526,-7.826592146136991
2923.9316238146666,289.09608908452526,-7.575105753208386
2953.2245531064245,289.09608908452526,-7.281501879908878
2982.517482398182,289.09608908452526,-6.888508798203726
3011.8104116899394,289.09608908452526,-6.39707733931581
3041.1033409816973,289.09608908452526,-5.823431005454874
3070.396270273455,289.09608908452526,-5.224403425102411
3099.689199565212,289.09608908452526,-4.666673492306976
3128.9821288569697,289.09608908452526,-4.17582016770807
668.3760683493333,318.67391866117174,-4.054219600638321
697.668997641091,318.67391866117174,-4.06391788406198
726.9619269328485,318.67391866117174,-4.051072254110448
756.2548562246061,318.67391866117174,-4.013862599856084
785.5477855163638,318.67391866117174,-3.948320317376684
814.8407148081212,318.67391866117174,-3.846999847062884
1166.3558663092122,318.67391866117174,-3.5419417483339863
1195.6487956009698,318.67391866117174,-4.003239068593465
1224.9417248927275,318.67391866117174,-4.5040310272148565
1254.234654184485,318.67391866117174,-5.016488226006023
1283.5275834762424,318.67391866117174,-5.511318401313648
1312.820512768,318.67391866117174,-5.971665970392537
1342.1134420597577,318.67391866117174,-6.386145263089754
1371.4063713515152,318.67391866117174,-6.750867921324781
1400.6993006432729,318.67391866117174,-7.066393700102688
1429.9922299350303,318.67391866117174,-7.316245547137274
1459.285159226788,318.67391866117174,-7.475548207409638
1488.5780885185457,318.67391866117174,-7.520430057776581
1517.871017810303,318.67391866117174,-7.4373499156971645
1547.1639471020608,318.67391866117174,-7.240226786337676
1576.4568763938182,318.67391866117174,-6.990056387145375
1605.749805685576,318.67391866117174,-6.714853951182015
1635.0427349773333,318.67391866117174,-6.366695427869898
1664.335664269091,318.67391866117174,-5.929841227088407
1693.6285935608487,318.67391866117174,-5.418361960417172
1722.9215228526061,318.67391866117174,-4.856996485476073
2367.365967271273,318.67391866117174,-4.044720314481545
2396.6588965630303,318.67391866117174,-4.803211786815247
2425.9518258547882,318.67391866117174,-5.567676802501801
2455.2447551465457,318.67391866117174,-6.360525398071026
2484.537684438303,318.67391866117174,-7.232115223627273
2513.8306137300606,318.67391866117174,-8.211300850449945
2543.1235430218185,318.67391866117174,-9.231840160539557
2572.416472313576,318.67391866117174,-10.219094815738158
2601.7094016053334,318.67391866117174,-11.06082515098416
2631.0023308970913,318.67391866117174,-11.657341575422087
2660.2952601888487,318.67391866117174,-11.94311199868957
2689.588189480606,318.67391866117174,-11.893335277658002
2718.8811187723636,318.67391866117174,-11.527585369129556
2748.1740480641215,318.67391866117174,-10.928058786933585
2777.466977355879,318.67391866117174,-10.220950629114936
2806.7599066476364,318.67391866117174,-9.538195568763292
2836.0528359393943,318.67391866117174,-8.957202164418634
2865.3457652311517,318.67391866117174,-8.500345349996282
2894.638694522909,318.67391866117174,-8.142666088993836
2923.9316238146666,318.67391866117174,-7.822273060010846
2953.2245531064245,318.67391866117174,-7.44448648097834
2982.517482398182,318.67391866117174,-6.911421024104781
3011.8104116899394,318.67391866117174,-6.277489584452313
3041.1033409816973,318.67391866117174,-5.589755506087174
3070.396270273455,318.67391866117174,-4.908930408931832
3099.689199565212,318.67391866117174,-4.306319353637025
3128.9821288569697,318.67391866117174,-3.804325790811367
580.4972804740606,348.2517482378182,-4.171433812809241
609.7902097658182,348.2517482378182,-4.253026043485924
639.0831390575759,348.2517482378182,-4.317000438231861
668.3760683493333,348.2517482378182,-4.360595864868807
697.668997641091,348.2517482378182,-4.38248544716569
726.9619269328485,348.2517482378182,-4.3822369283939775
756.2548562246061,348.2517482378182,-4.357621585636628
785.5477855163638,348.2517482378182,-4.304588745471798
814.8407148081212,348.2517482378182,-4.216694862625011
844.1336440998789,348.2517482378182,-4.081272452638215
1107.770007725697,348.2517482378182,-3.4926224213569714
1137.0629370174547,348.2517482378182,-3.936373561600646
1166.3558663092122,348.2517482378182,-4.421156254980794
1195.6487956009698,348.2517482378182,-4.9475295787208475
1224.9417248927275,348.2517482378182,-5.5229581230454565
1254.234654184485,348.2517482378182,-6.097550999870798
1283.5275834762424,348.2517482378182,-6.617680168028636
1312.820512768,348.2517482378182,-7.066532612312007
1342.1134420597577,348.2517482378182,-7.447909218644044
1371.4063713515152,348.2517482378182,-7.775302992833266
1400.6993006432729,348.2517482378182,-8.069047453299271
1429.9922299350303,348.2517482378182,-8.314519465573177
1459.285159226788,348.2517482378182,-8.487713306773363
1488.5780885185457,348.2517482378182,-8.556621562901586
1517.871017810303,348.2517482378182,-8.495201201105063
1547.1639471020608,348.2517482378182,-8.299602956785467
1576.4568763938182,348.2517482378182,-8.01334119325706
1605.749805685576,348.2517482378182,-7.654972013398422
1635.0427349773333,348.2517482378182,-7.185926810790296
1664.335664269091,348.2517482378182,-6.606800050830067
1693.6285935608487,348.2517482378182,-5.946536393746851
1722.9215228526061,348.2517482378182,-5.259092639701257
1752.2144521443638,348.2517482378182,-4.603892623385095
2338.073037979515,348.2517482378182,-4.328668280202431
2367.365967271273,348.2517482378182,-5.183591635663509
2396.6588965630303,348.2517482378182,-6.01711807663951
2425.9518258547882,348.2517482378182,-6.824651258559846
2455.2447551465457,348.2517482378182,-7.6310043591402135
2484.537684438303,348.2517482378182,-8.47302767211016
2513.8306137300606,348.2517482378182,-9.362884728774068
2543.1235430218185,348.2517482378182,-10.268416471673758
2572.416472313576,348.2517482378182,-11.14805270801734
2601.7094016053334,348.2517482378182,-11.926398225751639
2631.0023308970913,348.2517482378182,-12.460588658502228
2660.2952601888487,348.2517482378182,-12.659723218259511
2689.588189480606,348.2517482378182,-12.510423312559517
2718.8811187723636,348.2517482378182,-12.04715426880623
2748.1740480641215,348.2517482378182,-11.358133148316043
2777.466977355879,348.2517482378182,-10.572234584308616
2806.7599066476364,348.2517482378182,-9.821722939863816
2836.0528359393943,348.2517482378182,-9.177685111645022
2865.3457652311517,348.2517482378182,-8.656097678700206
2894.638694522909,348.2517482378182,-8.230558036736431
2923.9316238146666,348.2517482378182,-7.833715867296335
2953.2245531064245,348.2517482378182,-7.363971407873522
2982.517482398182,348.2517482378182,-6.741564847746842
3011.8104116899394,348.2517482378182,-6.014191473441726
3041.1033409816973,348.2517482378182,-5.242267163033636
3070.396270273455,348.2517482378182,-4.490948878995589
3099.689199565212,348.2517482378182,-3.8635663714786457
521.9114218905455,377.8295778144647,-4.205683195428381
551.2043511823031,377.8295778144647,-4.321750611347366
580.4972804740606,377.8295778144647,-4.4227084386864295
609.7902097658182,377.8295778144647,-4.509418545980393
639.0831390575759,377.8295778144647,-4.580981101887712
668.3760683493333,377.8295778144647,-4.635266408063529
697.668997641091,377.8295778144647,-4.669950445004079
726.9619269328485,377.8295778144647,-4.6823351079759625
756.2548562246061,377.8295778144647,-4.668251493314169
785.5477855163638,377.8295778144647,-4.621518317333435
814.8407148081212,377.8295778144647,-4.53309800793178
844.1336440998789,377.8295778144647,-4.3872242783771425
873.4265733916365,377.8295778144647,-4.157897888622876
1078.4770784339394,377.8295778144647,-3.8660434510753077
1107.770007725697,377.8295778144647,-4.366129554690936
1137.0629370174547,377.8295778144647,-4.9202077740075625
1166.3558663092122,377.8295778144647,-5.4821573595412305
1195.6487956009698,377.8295778144647,-6.06024773139007
1224.9417248927275,377.8295778144647,-6.714044400175317
1254.234654184485,377.8295778144647,-7.335291637998982
1283.5275834762424,377.8295778144647,-7.851764234127844
1312.820512768,377.8295778144647,-8.263296396002842
1342.1134420597577,377.8295778144647,-8.59469188461322
1371.4063713515152,377.8295778144647,-8.876598516370453
1400.6993006432729,377.8295778144647,-9.133205444652772
1429.9922299350303,377.8295778144647,-9.370859065177994
1459.285159226788,377.8295778144647,-9.567484696025842
1488.5780885185457,377.8295778144647,-9.67898432941633
1517.871017810303,377.8295778144647,-9.663565629211721
1547.1639471020608,377.8295778144647,-9.492781831173092
1576.4568763938182,377.8295778144647,-9.175844999685571
1605.749805685576,377.8295778144647,-8.726226111292698
1635.0427349773333,377.8295778144647,-8.134560462590267
1664.335664269091,377.8295778144647,-7.415344527913505
1693.6285935608487,377.8295778144647,-6.604811821402783
1722.9215228526061,377.8295778144647,-5.775867507993567
1752.2144521443638,377.8295778144647,-5.047688517259725
1781.5073814361212,377.8295778144647,-4.4104871158049646
2308.780108687758,377.8295778144647,-4.456920165682164
2338.073037979515,377.8295778144647,-5.419389321286342
2367.365967271273,377.8295778144647,-6.379994440318704
2396.6588965630303,377.8295778144647,-7.284376679094759
2425.9518258547882,377.8295778144647,-8.125860345439916
2455.2447551465457,377.8295778144647,-8.936028693054107
2484.537684438303,377.8295778144647,-9.74184675047065
2513.8306137300606,377.8295778144647,-10.550230305446304
2543.1235430218185,377.8295778144647,-11.350085006424049
2572.416472313576,377.8295778144647,-12.126937308706566
2601.7094016053334,377.8295778144647,-12.847151714201173
2631.0023308970913,377.8295778144647,-13.29035751817996
2660.2952601888487,377.8295778144647,-13.352617537289934
2689.588189480606,377.8295778144647,-13.045588697014235
2718.8811187723636,377.8295778144647,-12.436626084377135
2748.1740480641215,377.8295778144647,-11.618362669351017
2777.466977355879,377.8295778144647,-10.717007515103552
2806.7599066476364,377.8295778144647,-9.863924589026158
2836.0528359393943,377.8295778144647,-9.13613811399137
2865.3457652311517,377.8295778144647,-8.548524509901284
2894.638694522909,377.8295778144647,-8.065782428751431
2923.9316238146666,377.8295778144647,-7.608410290326751
2953.2245531064245,377.8295778144647,-7.070428635940373
2982.517482398182,377.8295778144647,-6.398501641686359
3011.8104116899394,377.8295778144647,-5.631468040354408
3041.1033409816973,377.8295778144647,-4.830687755560264
463.32556330703034,407.4074073911112,-4.133998943188059
492.61849259878795,407.4074073911112,-4.286561516799312
521.9114218905455,407.4074073911112,-4.418916220726769
551.2043511823031,407.4074073911112,-4.536006858709008
580.4972804740606,407.4074073911112,-4.640732231292778
609.7902097658182,407.4074073911112,-4.7340968080006425
639.0831390575759,407.4074073911112,-4.81534770215548
668.3760683493333,407.4074073911112,-4.882300222825907
697.668997641091,407.4074073911112,-4.931643667774064
726.9619269328485,407.4074073911112,-4.958706676288465
756.2548562246061,407.4074073911112,-4.956777038444188
785.5477855163638,407.4074073911112,-4.916613443269989
814.8407148081212,407.4074073911112,-4.826513554350104
844.1336440998789,407.4074073911112,-4.6736446123475535
873.4265733916365,407.4074073911112,-4.452711782002431
1049.184149142182,407.4074073911112,-4.280660910456947
1078.4770784339394,407.4074073911112,-4.799908760437376
1107.770007725697,407.4074073911112,-5.436674605697199
1137.0629370174547,407.4074073911112,-6.105948667092843
1166.3558663092122,407.4074073911112,-6.7585947195653
1195.6487956009698,407.4074073911112,-7.4126524787196795
1224.9417248927275,407.4074073911112,-8.107088328182465
1254.234654184485,407.4074073911112,-8.717597500528019
1283.5275834762424,407.4074073911112,-9.17984828266607
1312.820512768,407.4074073911112,-9.516483321494372
1342.1134420597577,407.4074073911112,-9.773279466866164
1371.4063713515152,407.4074073911112,-9.9936920494585
1400.6993006432729,407.4074073911112,-10.209067729090302
1429.9922299350303,407.4074073911112,-10.433698738672359
1459.285159226788,407.4074073911112,-10.649085995321615
1488.5780885185457,407.4074073911112,-10.809386787794356
