x,y,z
1756.4102563400002,925.6410256040001,-16.0
1661.538461472,923.07692304,-16.0
1579.487179424,974.35897432,-16.0
1497.4358973760002,1020.512820472,-16.0
1415.384615328,1066.666666624,-16.0
1456.410256352,1123.076923032,-16.0
1528.2051281440001,1171.794871748,-16.0
1551.28205122,1264.1025640520002,-16.0
1561.538461476,1361.538461484,-16.0
1535.897435836,1451.282051224,-16.0
1530.7692307080001,1551.28205122,-16.0
1487.17948712,1617.9487178840002,-16.0
1438.461538404,1541.025640964,-16.0
1423.07692302,1446.153846096,-16.0
1364.102564048,1374.3589743040002,-16.0
1302.564102512,1302.564102512,-16.0
1276.9230768720001,1212.820512772,-16.0
1315.384615332,1130.769230724,-16.0
1243.58974354,1069.230769188,-16.0
1238.461538412,969.230769192,-16.0
1228.205128156,871.7948717600001,-16.0
1269.2307691800002,789.743589712,-16.0
1346.1538461,733.333333304,-16.0
2620.512820408,474.35897434000003,-15.0
2615.38461528,556.410256388,-15.0
2553.8461537440003,630.7692307440001,-15.0
2499.9999999,710.256410228,-15.0
2482.051281952,805.128205096,-15.0
2528.2051281040003,882.0512820160001,-15.0
2582.051281948,956.410256372,-15.0
2535.897435796,1017.948717908,-15.0
2446.153846056,994.8717948320001,-15.0
2366.666666572,1048.717948676,-15.0
2287.1794870880003,1102.56410252,-15.0
2194.871794784,1115.38461534,-15.0
2105.128205044,1087.179487136,-15.0
2017.9487178680001,1115.38461534,-15.0
1961.53846146,1194.871794824,-15.0
1882.0512819760002,1241.025640976,-15.0
1805.128205056,1184.615384568,-15.0
1720.512820444,1189.743589696,-15.0
1692.30769224,1276.9230768720001,-15.0
1669.230769164,1369.230769176,-15.0
1671.794871728,1464.102564044,-15.0
1697.435897368,1556.410256348,-15.0
1723.076923008,1646.1538460880001,-15.0
1730.7692307000002,1741.0256409560002,-15.0
1692.30769224,1782.05128198,-15.0
1661.538461472,1692.30769224,-15.0
1574.358974296,1676.923076856,-15.0
1484.615384556,1697.435897368,-15.0
1410.2564102000001,1648.7179486520001,-15.0
1392.3076922520002,1556.410256348,-15.0
1361.538461484,1469.230769172,-15.0
1307.69230764,1394.8717948160001,-15.0
1261.5384614880002,1312.820512768,-15.0
1189.743589696,1243.58974354,-15.0
1102.56410252,1207.692307644,-15.0
999.9999999600001,1207.692307644,-15.0
899.999999964,1202.564102516,-15.0
905.128205092,1141.0256409800002,-15.0
982.051282012,1087.179487136,-15.0
1066.666666624,1046.153846112,-15.0
1128.20512816,974.35897432,-15.0
1125.641025596,879.4871794520001,-15.0
1115.38461534,782.05128202,-15.0
1192.30769226,741.025640996,-15.0
1274.3589743080001,692.3076922800001,-15.0
1348.717948664,630.7692307440001,-15.0
1438.461538404,628.2051281800001,-15.0
1517.9487178880001,684.615384588,-15.0
1594.871794808,746.1538461240001,-15.0
1689.743589676,761.5384615080001,-15.0
1766.6666665960001,815.3846153520001,-15.0
1815.384615312,897.4358974,-15.0
1853.8461537720002,982.051282012,-15.0
1935.89743582,971.794871756,-15.0
2002.5641024840002,951.2820512440001,-15.0
2061.5384614560003,969.230769192,-15.0
2135.897435812,907.692307656,-15.0
2115.3846153,825.6410256080001,-15.0
2187.1794870920003,756.4102563800001,-15.0
2264.102564012,694.8717948440001,-15.0
2346.15384606,656.410256384,-15.0
2425.641025544,602.56410254,-15.0
2489.743589644,533.333333312,-15.0
2564.1025640000003,520.5128204920001,-15.0
2674.3589742520003,402.564102548,-14.0
2692.3076922,484.615384596,-14.0
2646.153846048,564.10256408,-14.0
2594.871794768,643.5897435640001,-14.0
2561.538461436,730.76923074,-14.0
2535.897435796,820.5128204800001,-14.0
2594.871794768,889.7435897080001,-14.0
2625.641025536,979.487179448,-14.0
2620.512820408,1079.487179444,-14.0
2548.7179486160003,1105.128205084,-14.0
2461.53846144,1069.230769188,-14.0
2376.923076828,1112.820512776,-14.0
2297.4358973440003,1166.6666666200001,-14.0
2212.820512732,1205.12820508,-14.0
2158.974358888,1279.4871794360001,-14.0
2087.1794870960002,1338.461538408,-14.0
2015.3846153040001,1405.1282050720001,-14.0
1946.153846076,1474.3589743,-14.0
1899.9999999240001,1556.410256348,-14.0
1825.641025568,1617.9487178840002,-14.0
1789.743589672,1705.12820506,-14.0
1810.256410184,1797.435897364,-14.0
1812.820512748,1884.6153845400002,-14.0
1720.512820444,1889.7435896680001,-14.0
1664.102564036,1812.820512748,-14.0
1597.435897372,1738.4615383920002,-14.0
1502.5641025040002,1733.3333332640002,-14.0
1412.8205127640001,1733.3333332640002,-14.0
1353.846153792,1658.974358908,-14.0
1333.33333328,1566.666666604,-14.0
1320.51282046,1484.615384556,-14.0
1282.0512820000001,1405.1282050720001,-14.0
1210.256410208,1335.897435844,-14.0
1128.20512816,1287.1794871280001,-14.0
1030.7692307280001,1284.6153845640001,-14.0
935.8974358600001,1269.2307691800002,-14.0
841.025640992,1253.8461537960002,-14.0
784.615384584,1194.871794824,-14.0
830.769230736,1117.948717904,-14.0
815.3846153520001,1023.076923036,-14.0
876.9230768880001,953.846153808,-14.0
930.7692307320001,874.3589743240001,-14.0
989.7435897040001,797.435897404,-14.0
1038.4615384200001,715.384615356,-14.0
1112.820512776,651.282051256,-14.0
1199.999999952,615.38461536,-14.0
1282.0512820000001,566.666666644,-14.0
1376.9230768680002,548.717948696,-14.0
1466.666666608,523.076923056,-14.0
1546.153846092,574.3589743360001,-14.0
1628.2051281400002,620.512820488,-14.0
1723.076923008,635.8974358720001,-14.0
1799.999999928,689.7435897160001,-14.0
1815.384615312,784.615384584,-14.0
1856.4102563360002,869.2307691960001,-14.0
1917.948717872,923.07692304,-14.0
1994.8717947920002,864.102564068,-14.0
2074.358974276,807.6923076600001,-14.0
2153.84615376,753.8461538160001,-14.0
2230.76923068,689.7435897160001,-14.0
2307.6923076000003,633.3333333080001,-14.0
2384.61538452,579.4871794640001,-14.0
2443.5897434920003,502.56410254400004,-14.0
2507.6923075920004,438.46153844400004,-14.0
2602.56410246,425.641025624,-14.0
1943.589743512,2117.948717864,-12.0
2015.3846153040001,2161.5384614520003,-12.0
1987.1794871000002,2251.282051192,-12.0
1938.461538384,2333.3333332400002,-12.0
1851.2820512080002,2369.230769136,-12.0
1764.1025640320001,2338.461538368,-12.0
1794.8717948,2256.41025632,-12.0
1828.205128132,2169.230769144,-12.0
1907.692307616,2117.948717864,-12.0
2702.564102456,333.33333332,-12.0
2735.897435788,420.512820496,-12.0
2710.256410148,512.8205128000001,-12.0
2661.538461432,594.871794848,-12.0
2610.256410152,674.358974332,-12.0
2582.051281948,764.1025640720001,-12.0
2607.692307588,853.846153812,-12.0
2648.7179486120003,938.4615384240001,-12.0
2646.153846048,1038.4615384200001,-12.0
2612.820512716,1125.641025596,-12.0
2530.769230668,1166.6666666200001,-12.0
2471.794871696,1217.9487179,-12.0
2376.923076828,1212.820512772,-12.0
2299.999999908,1269.2307691800002,-12.0
2269.23076914,1358.97435892,-12.0
2199.999999912,1423.07692302,-12.0
2117.948717864,1466.666666608,-12.0
2028.205128124,1476.923076864,-12.0
1953.846153768,1541.025640964,-12.0
1892.3076922320001,1615.3846153200002,-12.0
1828.205128132,1687.179487112,-12.0
1848.717948644,1776.9230768520001,-12.0
1858.9743589000002,1869.2307691560002,-12.0
1807.69230762,1948.71794864,-12.0
1712.820512752,1953.846153768,-12.0
1666.6666666,1871.7948717200002,-12.0
1605.128205064,1794.8717948,-12.0
1517.9487178880001,1769.2307691600001,-12.0
1425.641025584,1779.4871794160001,-12.0
1348.717948664,1717.94871788,-12.0
1310.256410204,1633.3333332680002,-12.0
1276.9230768720001,1546.153846092,-12.0
1248.717948668,1456.410256352,-12.0
1192.30769226,1376.9230768680002,-12.0
1105.128205084,1343.589743536,-12.0
1012.8205127800001,1364.102564048,-12.0
923.07692304,1351.282051228,-12.0
841.025640992,1302.564102512,-12.0
753.8461538160001,1264.1025640520002,-12.0
684.615384588,1194.871794824,-12.0
648.717948692,1115.38461534,-12.0
689.7435897160001,1030.7692307280001,-12.0
764.1025640720001,969.230769192,-12.0
838.461538428,905.128205092,-12.0
884.6153845800001,823.0769230440001,-12.0
917.948717912,733.333333304,-12.0
966.666666628,653.84615382,-12.0
1043.5897435480001,594.871794848,-12.0
1123.076923032,541.025641004,-12.0
1212.820512772,510.256410236,-12.0
1299.999999948,482.051282032,-12.0
1392.3076922520002,474.35897434000003,-12.0
1476.923076864,435.89743588000005,-12.0
1571.794871732,453.846153828,-12.0
1656.4102563440001,497.43589741600005,-12.0
1720.512820444,566.666666644,-12.0
1802.564102492,615.38461536,-12.0
1846.15384608,697.4358974080001,-12.0
1912.820512744,761.5384615080001,-12.0
1912.820512744,825.6410256080001,-12.0
1948.71794864,851.282051248,-12.0
2028.205128124,794.87179484,-12.0
2110.256410172,743.58974356,-12.0
2192.3076922200003,692.3076922800001,-12.0
2266.666666576,633.3333333080001,-12.0
2341.025640932,574.3589743360001,-12.0
2392.3076922120003,494.87179485200005,-12.0
2458.974358876,423.07692306,-12.0
2543.5897434880003,384.6153846,-12.0
2638.4615383560003,371.79487178,-12.0
2671.794871688,202.56410255600002,-10.0
2728.205128096,261.538461528,-10.0
2784.6153845040003,333.33333332,-10.0
2838.461538348,410.25641024000004,-10.0
2761.538461428,456.410256392,-10.0
2715.384615276,538.46153844,-10.0
2664.1025639960003,617.948717924,-10.0
2625.641025536,702.5641025360001,-10.0
2620.512820408,797.435897404,-10.0
2656.410256304,884.6153845800001,-10.0
2666.66666656,979.487179448,-10.0
2656.410256304,1076.92307688,-10.0
2633.3333332280004,1169.230769184,-10.0
2707.692307584,1220.512820464,-10.0
2758.9743588640004,1274.3589743080001,-10.0
2682.051281944,1328.205128152,-10.0
2589.74358964,1317.948717896,-10.0
2517.9487178480003,1266.6666666160002,-10.0
2423.0769229800003,1261.5384614880002,-10.0
2353.846153752,1325.641025588,-10.0
2310.256410164,1410.2564102000001,-10.0
2225.641025552,1453.846153788,-10.0
2148.717948632,1510.2564101960002,-10.0
2056.4102563280003,1494.8717948120002,-10.0
1982.0512819720002,1551.28205122,-10.0
1923.076923,1628.2051281400002,-10.0
1861.5384614640002,1699.999999932,-10.0
1894.8717947960001,1787.179487108,-10.0
1876.9230768480002,1876.9230768480002,-10.0
1848.717948644,1964.102564024,-10.0
1884.6153845400002,2051.2820512000003,-10.0
1974.3589742800002,2079.487179404,-10.0
2048.717948636,2135.897435812,-10.0
2076.9230768400002,2225.641025552,-10.0
2056.4102563280003,2317.9487178560003,-10.0
2030.769230688,2407.6923075960003,-10.0
2051.2820512000003,2499.9999999,-10.0
2048.717948636,2587.179487076,-10.0
1961.53846146,2592.307692204,-10.0
1889.7435896680001,2541.025640924,-10.0
1825.641025568,2466.666666568,-10.0
1751.2820512120002,2399.999999904,-10.0
1697.435897368,2323.0769229840002,-10.0
1705.12820506,2228.205128116,-10.0
1646.1538460880001,2171.7948717080003,-10.0
1589.74358968,2117.948717864,-10.0
1679.48717942,2115.3846153,-10.0
1766.6666665960001,2087.1794870960002,-10.0
1730.7692307000002,2002.5641024840002,-10.0
1661.538461472,1935.89743582,-10.0
1617.9487178840002,1853.8461537720002,-10.0
1541.025640964,1802.564102492,-10.0
1446.153846096,1812.820512748,-10.0
1366.666666612,1766.6666665960001,-10.0
1292.307692256,1702.564102496,-10.0
1266.6666666160002,1612.8205127560002,-10.0
1241.025640976,1523.0769230160001,-10.0
1205.12820508,1435.89743584,-10.0
1117.948717904,1399.9999999440001,-10.0
1023.076923036,1417.948717892,-10.0
930.7692307320001,1394.8717948160001,-10.0
848.717948684,1343.589743536,-10.0
766.6666666360001,1299.999999948,-10.0
687.1794871520001,1246.153846104,-10.0
625.641025616,1174.358974312,-10.0
625.641025616,1074.358974316,-10.0
615.38461536,976.923076884,-10.0
674.358974332,930.7692307320001,-10.0
766.6666666360001,907.692307656,-10.0
810.2564102240001,825.6410256080001,-10.0
835.897435864,735.897435868,-10.0
876.9230768880001,651.282051256,-10.0
958.974358936,605.128205104,-10.0
1038.4615384200001,553.846153824,-10.0
1120.512820468,510.256410236,-10.0
1199.999999952,458.974358956,-10.0
1287.1794871280001,423.07692306,-10.0
1376.9230768680002,397.43589742,-10.0
1469.230769172,376.92307690800004,-10.0
1564.10256404,392.307692292,-10.0
1648.7179486520001,433.33333331600005,-10.0
1720.512820444,502.56410254400004,-10.0
1797.435897364,558.974358952,-10.0
1853.8461537720002,630.7692307440001,-10.0
1892.3076922320001,717.94871792,-10.0
1974.3589742800002,764.1025640720001,-10.0
2066.6666665840003,741.025640996,-10.0
2143.589743504,682.051282024,-10.0
2225.641025552,638.4615384360001,-10.0
2292.3076922160003,566.666666644,-10.0
2356.410256316,489.743589724,-10.0
2423.0769229800003,420.512820496,-10.0
2502.564102464,364.102564088,-10.0
2574.3589742560002,302.564102552,-10.0
2625.641025536,223.076923068,-10.0
1515.3846153240002,1941.025640948,-10.0
1497.4358973760002,1982.0512819720002,-10.0
2707.692307584,174.35897435200002,-8.0
2789.7435896320003,223.076923068,-8.0
2866.666666552,282.05128204,-8.0
2948.7179486,325.641025628,-8.0
2912.820512704,405.12820511200005,-8.0
2846.15384604,464.10256408400005,-8.0
2761.538461428,502.56410254400004,-8.0
2712.820512712,584.615384592,-8.0
2664.1025639960003,666.66666664,-8.0
2648.7179486120003,758.9743589440001,-8.0
2671.794871688,851.282051248,-8.0
2692.3076922,943.5897435520001,-8.0
2679.4871793800003,1038.4615384200001,-8.0
2682.051281944,1133.333333288,-8.0
2756.4102563,1199.999999952,-8.0
2776.923076812,1289.7435896920001,-8.0
2705.12820502,1343.589743536,-8.0
2615.38461528,1343.589743536,-8.0
2520.512820412,1356.410256356,-8.0
2451.282051184,1317.948717896,-8.0
2379.487179392,1320.51282046,-8.0
2353.846153752,1407.6923076360001,-8.0
2269.23076914,1448.71794866,-8.0
2192.3076922200003,1510.2564101960002,-8.0
2099.999999916,1523.0769230160001,-8.0
2012.8205127400001,1548.717948656,-8.0
1941.025640948,1617.9487178840002,-8.0
1884.6153845400002,1694.871794804,-8.0
1910.25641018,1784.615384544,-8.0
1897.4358973600001,1871.7948717200002,-8.0
1869.2307691560002,1961.53846146,-8.0
1928.205128128,2035.897435816,-8.0
2017.9487178680001,2061.5384614560003,-8.0
2082.0512819680002,2130.769230684,-8.0
2128.20512812,2212.820512732,-8.0
2097.435897352,2302.5641024720003,-8.0
2066.6666665840003,2392.3076922120003,-8.0
2092.307692224,2482.051281952,-8.0
2133.333333248,2566.666666564,-8.0
2107.692307608,2658.9743588680003,-8.0
2012.8205127400001,2669.2307691240003,-8.0
1923.076923,2641.02564092,-8.0
1843.589743516,2587.179487076,-8.0
1776.9230768520001,2512.8205127200004,-8.0
1720.512820444,2435.8974358,-8.0
1661.538461472,2361.538461444,-8.0
1625.6410255760002,2274.358974268,-8.0
1582.051281988,2189.743589656,-8.0
1530.7692307080001,2107.692307608,-8.0
1482.051281992,2025.6410255600001,-8.0
1441.025640968,1941.025640948,-8.0
1433.333333276,1856.4102563360002,-8.0
1356.410256356,1799.999999928,-8.0
1274.3589743080001,1756.4102563400002,-8.0
1215.384615336,1689.743589676,-8.0
1223.076923028,1592.307692244,-8.0
1197.435897388,1502.5641025040002,-8.0
1133.333333288,1456.410256352,-8.0
1041.0256409840001,1479.487179428,-8.0
951.2820512440001,1451.282051224,-8.0
871.7948717600001,1399.9999999440001,-8.0
792.307692276,1343.589743536,-8.0
710.256410228,1297.435897384,-8.0
635.8974358720001,1233.333333284,-8.0
599.999999976,1148.7179486720001,-8.0
597.435897412,1051.28205124,-8.0
561.538461516,964.102564064,-8.0
548.717948696,871.7948717600001,-8.0
625.641025616,828.2051281720001,-8.0
712.820512792,835.897435864,-8.0
746.1538461240001,746.1538461240001,-8.0
784.615384584,661.538461512,-8.0
838.461538428,587.179487156,-8.0
933.3333332960001,571.7948717720001,-8.0
1020.512820472,533.333333312,-8.0
1107.692307648,494.87179485200005,-8.0
1179.48717944,425.641025624,-8.0
1264.1025640520002,387.179487164,-8.0
1353.846153792,356.410256396,-8.0
1443.589743532,330.769230756,-8.0
1541.025640964,335.897435884,-8.0
1623.0769230120002,379.48717947200004,-8.0
1702.564102496,435.89743588000005,-8.0
1776.9230768520001,497.43589741600005,-8.0
1846.15384608,561.538461516,-8.0
1894.8717947960001,641.0256410000001,-8.0
1943.589743512,715.384615356,-8.0
2033.333333252,728.205128176,-8.0
2115.3846153,676.923076896,-8.0
2192.3076922200003,617.948717924,-8.0
2248.717948628,551.28205126,-8.0
2307.6923076000003,474.35897434000003,-8.0
2384.61538452,415.384615368,-8.0
2461.53846144,351.28205126800003,-8.0
2538.4615383600003,289.74358973200003,-8.0
2599.999999896,217.94871794000002,-8.0
2682.051281944,179.48717948,-8.0
2705.12820502,148.717948712,-6.0
2792.307692196,182.051282044,-6.0
2887.179487064,199.999999992,-6.0
2979.487179368,223.076923068,-6.0
3030.7692306480003,297.435897424,-6.0
2976.923076804,376.92307690800004,-6.0
2917.948717832,453.846153828,-6.0
2841.025640912,507.692307672,-6.0
2764.1025639920003,556.410256388,-6.0
2712.820512712,635.8974358720001,-6.0
2682.051281944,725.641025612,-6.0
2694.8717947640002,820.5128204800001,-6.0
2702.564102456,915.384615348,-6.0
2694.8717947640002,1010.2564102160001,-6.0
2694.8717947640002,1107.692307648,-6.0
2764.1025639920003,1171.794871748,-6.0
2812.820512708,1253.8461537960002,-6.0
2830.769230656,1348.717948664,-6.0
2871.79487168,1433.333333276,-6.0
2864.102563988,1505.1282050680002,-6.0
2784.6153845040003,1453.846153788,-6.0
2710.256410148,1387.1794871240002,-6.0
2620.512820408,1361.538461484,-6.0
2525.64102554,1379.4871794320002,-6.0
2451.282051184,1443.589743532,-6.0
2356.410256316,1430.769230712,-6.0
2271.7948717040003,1469.230769172,-6.0
2199.999999912,1530.7692307080001,-6.0
2105.128205044,1548.717948656,-6.0
2015.3846153040001,1574.358974296,-6.0
1946.153846076,1646.1538460880001,-6.0
1899.9999999240001,1720.512820444,-6.0
1935.89743582,1807.69230762,-6.0
1907.692307616,1897.4358973600001,-6.0
1910.25641018,1982.0512819720002,-6.0
1999.9999999200002,2012.8205127400001,-6.0
2074.358974276,2069.230769148,-6.0
2133.333333248,2146.153846068,-6.0
2166.6666665800003,2233.333333244,-6.0
2120.512820428,2315.384615292,-6.0
2102.56410248,2402.5641024680003,-6.0
2151.2820511960003,2484.615384516,-6.0
2179.4871794,2574.3589742560002,-6.0
2164.102564016,2669.2307691240003,-6.0
2143.589743504,2761.538461428,-6.0
2112.820512736,2830.769230656,-6.0
2035.897435816,2771.794871684,-6.0
1958.974358896,2710.256410148,-6.0
1876.9230768480002,2664.1025639960003,-6.0
1799.999999928,2602.56410246,-6.0
1738.4615383920002,2525.64102554,-6.0
1682.051281984,2448.7179486200002,-6.0
1625.6410255760002,2369.230769136,-6.0
1582.051281988,2284.615384524,-6.0
1548.717948656,2197.4358973480003,-6.0
1502.5641025040002,2115.3846153,-6.0
1425.641025584,2053.846153764,-6.0
1399.9999999440001,1964.102564024,-6.0
1417.948717892,1874.3589742840002,-6.0
1338.461538408,1820.51282044,-6.0
1251.282051232,1784.615384544,-6.0
1192.30769226,1710.256410188,-6.0
1205.12820508,1617.9487178840002,-6.0
1184.615384568,1525.6410255800001,-6.0
1099.999999956,1528.2051281440001,-6.0
1012.8205127800001,1494.8717948120002,-6.0
923.07692304,1469.230769172,-6.0
846.15384612,1417.948717892,-6.0
769.2307692,1361.538461484,-6.0
689.7435897160001,1310.256410204,-6.0
612.820512796,1251.282051232,-6.0
571.7948717720001,1169.230769184,-6.0
571.7948717720001,1066.666666624,-6.0
533.333333312,979.487179448,-6.0
487.17948716,897.4358974,-6.0
497.43589741600005,799.999999968,-6.0
566.666666644,753.8461538160001,-6.0
641.0256410000001,717.94871792,-6.0
646.153846128,628.2051281800001,-6.0
710.256410228,551.28205126,-6.0
794.87179484,510.256410236,-6.0
889.7435897080001,523.076923056,-6.0
984.615384576,520.5128204920001,-6.0
1071.794871752,484.615384596,-6.0
1143.5897435440002,417.948717932,-6.0
1228.205128156,374.35897434400005,-6.0
1312.820512768,335.897435884,-6.0
1399.9999999440001,299.999999988,-6.0
1492.3076922480002,276.923076912,-6.0
1587.179487116,297.435897424,-6.0
1661.538461472,361.538461524,-6.0
1741.0256409560002,407.69230767600004,-6.0
1805.128205056,479.487179468,-6.0
1864.1025640280002,546.153846132,-6.0
1938.461538384,610.256410232,-6.0
2010.2564101760001,679.48717946,-6.0
2099.999999916,664.102564076,-6.0
2153.84615376,584.615384592,-6.0
2212.820512732,517.9487179280001,-6.0
2289.743589652,456.410256392,-6.0
2366.666666572,397.43589742,-6.0
2443.5897434920003,335.897435884,-6.0
2520.512820412,271.794871784,-6.0
2587.179487076,199.999999992,-6.0
2669.2307691240003,151.282051276,-6.0
2764.1025639920003,82.051282048,-4.0
2858.97435886,97.435897432,-4.0
2956.410256292,105.128205124,-4.0
3046.1538460320003,130.769230764,-4.0
3146.1538460280003,125.64102563600001,-4.0
3182.0512819240003,192.3076923,-4.0
3156.4102562840003,282.05128204,-4.0
3094.871794748,356.410256396,-4.0
3020.5128203920003,420.512820496,-4.0
2948.7179486,487.17948716,-4.0
2876.923076808,553.846153824,-4.0
2805.1282050160003,615.38461536,-4.0
2776.923076812,702.5641025360001,-4.0
2779.4871793760003,797.435897404,-4.0
2751.282051172,887.1794871440001,-4.0
2748.7179486080004,982.051282012,-4.0
2735.897435788,1069.230769188,-4.0
2812.820512708,1128.20512816,-4.0
2871.79487168,1205.12820508,-4.0
2889.7435896280003,1299.999999948,-4.0
2935.8974357800003,1379.4871794320002,-4.0
2966.666666548,1469.230769172,-4.0
3015.3846152640003,1551.28205122,-4.0
3089.74358962,1592.307692244,-4.0
3174.358974232,1630.7692307040002,-4.0
3243.58974346,1694.871794804,-4.0
3212.820512692,1771.7948717240001,-4.0
3117.948717824,1774.3589742880001,-4.0
3035.8974357760003,1725.641025572,-4.0
2982.051281932,1651.2820512160001,-4.0
2892.307692192,1623.0769230120002,-4.0
2815.3846152720002,1561.538461476,-4.0
2735.897435788,1507.6923076320002,-4.0
2638.4615383560003,1502.5641025040002,-4.0
2551.28205118,1535.897435836,-4.0
2502.564102464,1612.8205127560002,-4.0
2441.025640928,1676.923076856,-4.0
2343.589743496,1682.051281984,-4.0
2261.538461448,1733.3333332640002,-4.0
2287.1794870880003,1779.4871794160001,-4.0
2374.358974264,1743.5897435200002,-4.0
2469.230769132,1730.7692307000002,-4.0
2505.128205028,1782.05128198,-4.0
2435.8974358,1853.8461537720002,-4.0
2497.435897336,1876.9230768480002,-4.0
2535.897435796,1917.948717872,-4.0
2510.256410156,2002.5641024840002,-4.0
2441.025640928,2007.6923076120001,-4.0
2361.538461444,1958.974358896,-4.0
2302.5641024720003,2030.769230688,-4.0
2371.7948717,2035.897435816,-4.0
2433.3333332360003,2087.1794870960002,-4.0
2438.4615383640003,2187.1794870920003,-4.0
2428.2051281080003,2282.0512819600003,-4.0
2384.61538452,2220.512820424,-4.0
2335.897435804,2189.743589656,-4.0
2325.641025548,2287.1794870880003,-4.0
2310.256410164,2382.051281956,-4.0
2284.615384524,2474.35897426,-4.0
2271.7948717040003,2569.2307691280002,-4.0
2258.974358884,2664.1025639960003,-4.0
2253.846153756,2761.538461428,-4.0
2310.256410164,2838.461538348,-4.0
2333.3333332400002,2928.205128088,-4.0
2274.358974268,2999.9999998800004,-4.0
2179.4871794,3005.1282050080004,-4.0
2099.999999916,2953.846153728,-4.0
2025.6410255600001,2887.179487064,-4.0
1953.846153768,2817.948717836,-4.0
1882.0512819760002,2748.7179486080004,-4.0
1794.8717948,2712.820512712,-4.0
1725.641025572,2643.5897434840003,-4.0
1658.974358908,2569.2307691280002,-4.0
1607.692307628,2489.743589644,-4.0
1556.410256348,2410.25641016,-4.0
1528.2051281440001,2320.51282042,-4.0
1489.743589684,2235.897435808,-4.0
1438.461538404,2156.4102563240003,-4.0
1358.97435892,2102.56410248,-4.0
1317.948717896,2017.9487178680001,-4.0
1323.076923024,1923.076923,-4.0
1276.9230768720001,1874.3589742840002,-4.0
1202.564102516,1807.69230762,-4.0
1153.8461538000001,1725.641025572,-4.0
1130.769230724,1633.3333332680002,-4.0
1041.0256409840001,1605.128205064,-4.0
958.974358936,1561.538461476,-4.0
882.0512820160001,1505.1282050680002,-4.0
807.6923076600001,1441.025640968,-4.0
728.205128176,1389.7435896880002,-4.0
641.0256410000001,1351.282051228,-4.0
564.10256408,1292.307692256,-4.0
507.692307672,1217.9487179,-4.0
502.56410254400004,1117.948717904,-4.0
484.615384596,1025.6410256000001,-4.0
412.82051280400003,964.102564064,-4.0
392.307692292,871.7948717600001,-4.0
392.307692292,771.794871764,-4.0
358.97435896,684.615384588,-4.0
358.97435896,592.307692284,-4.0
415.384615368,515.3846153640001,-4.0
430.769230752,420.512820496,-4.0
510.256410236,376.92307690800004,-4.0
597.435897412,341.025641012,-4.0
684.615384588,305.128205116,-4.0
779.487179456,287.17948716800004,-4.0
853.846153812,335.897435884,-4.0
894.871794836,420.512820496,-4.0
976.923076884,441.02564100800004,-4.0
1058.974358932,397.43589742,-4.0
1128.20512816,328.205128192,-4.0
1212.820512772,287.17948716800004,-4.0
1302.564102512,258.97435896400003,-4.0
1387.1794871240002,215.384615376,-4.0
1469.230769172,166.66666666,-4.0
1558.974358912,141.02564102,-4.0
1653.8461537800001,148.717948712,-4.0
1715.384615316,220.51282050400002,-4.0
1741.0256409560002,312.820512808,-4.0
1805.128205056,387.179487164,-4.0
1866.6666665920002,461.53846152,-4.0
1930.769230692,512.8205128000001,-4.0
2023.0769229960001,533.333333312,-4.0
2099.999999916,469.23076921200004,-4.0
2182.0512819640003,423.07692306,-4.0
2269.23076914,387.179487164,-4.0
2346.15384606,325.641025628,-4.0
2423.0769229800003,264.102564092,-4.0
2499.9999999,202.56410255600002,-4.0
2576.92307682,146.153846148,-4.0
2656.410256304,94.87179486800001,-4.0
2751.282051172,82.051282048,-4.0
2575.1521858405467,201.36054420963268,-4.477465823606441
2588.064932565727,201.36054420963268,-6.136853156904702
2600.977679290907,201.36054420963268,-8.126949765519353
2665.5414129168057,201.36054420963268,-10.870993606010158
2678.454159641986,201.36054420963268,-8.675871960820777
2704.279653092345,201.36054420963268,-7.536523818033165
2717.1923998175253,201.36054420963268,-9.893088605977363
2730.1051465427054,201.36054420963268,-13.23134633871543
2743.017893267885,201.36054420963268,-16.386481906277908
2768.843386718245,201.36054420963268,-17.476939775936756
2781.756133443425,201.36054420963268,-13.077038693063017
2794.6688801686046,201.36054420963268,-4.258580532415156
2807.5816268937842,201.36054420963268,2.7140076237983406
2820.4943736189643,201.36054420963268,5.959485672704607
2846.3198670693237,201.36054420963268,4.48967586738658
2859.232613794504,201.36054420963268,1.3846702225581318
2872.145360519684,201.36054420963268,-2.2268811107860103
2885.0581072448635,201.36054420963268,-5.539837027947762
2897.970853970043,201.36054420963268,-7.846966059080542
2532.167832066546,261.015175290449,-7.291411578803173
1190.693990646363,439.97906853289805,-9.11259945455039
2830.53163041841,439.97906853289805,-11.514016568164818
2840.5306404170196,439.97906853289805,-9.479962216286834
2850.52965041563,439.97906853289805,-7.005894476788246
2860.5286604142398,439.97906853289805,-5.410897845171135
1105.4682473595126,499.6336996137144,-7.710031670909395
1114.5482951488746,499.6336996137144,-9.051953719033312
1123.6283429382365,499.6336996137144,-10.446029615761562
2694.476610497864,499.6336996137144,-13.78812295501114
2703.556658287226,499.6336996137144,-12.77867225746754
2712.636706076588,499.6336996137144,-11.734961378886931
1028.1457281046023,559.2883306945307,-8.83004212462424
1036.5112364697761,559.2883306945307,-9.79133258485657
1847.9655478916295,559.2883306945307,-7.820648088626093
1856.331056256803,559.2883306945307,-6.892787597561703
1864.696564621977,559.2883306945307,-5.934815922331201
2642.6888425831353,559.2883306945307,-14.632629109651116
2651.054350948309,559.2883306945307,-12.756993074685363
2659.4198593134824,559.2883306945307,-9.954545984849315
2667.7853676786563,559.2883306945307,-6.791694566041563
2676.15087604383,559.2883306945307,-3.8460901397815563
2684.516384409004,559.2883306945307,-1.6953840275886058
2701.2474011393515,559.2883306945307,-2.0892720314811264
2709.6129095045253,559.2883306945307,-5.789168790605217
2717.978417869699,559.2883306945307,-11.76088129369538
2726.343926234873,559.2883306945307,-15.111834424162963
2743.0749429652205,559.2883306945307,-13.890047163107544
2751.440451330394,559.2883306945307,-10.972534697623768
2759.805959695568,559.2883306945307,-7.620761626194845
2768.171468060741,559.2883306945307,-4.644771080243454
2776.536976425915,559.2883306945307,-2.423430126496842
2784.9024847910887,559.2883306945307,-0.8888459077624069
2600.4291384004355,618.942961775347,-14.89566299833331
2610.6640917312143,618.942961775347,-17.103996092699205
2620.899045061992,618.942961775347,-19.33077694352945
2641.368951723549,618.942961775347,-20.50883549183007
2651.603905054327,618.942961775347,-17.794689977923632
2661.8388583851047,618.942961775347,-11.768299127268945
2672.0738117158835,618.942961775347,-5.318092034080241
2682.3087650466614,618.942961775347,-2.6649102026250757
2702.778671708218,618.942961775347,-4.2063666899730165
2713.013625038996,618.942961775347,-6.0300028570624375
2103.4305115655525,678.5975928561634,-6.43338300881089
2114.471373290904,678.5975928561634,-7.8912335496895425
2600.269289206374,678.5975928561634,-13.250682922006792
2611.3101509317257,678.5975928561634,-11.858272185156876
2622.351012657078,678.5975928561634,-10.383821281307085
1883.4723508668917,738.2522239369797,-8.880791961538858
1891.9678714102652,738.2522239369797,-9.95251182372094
1900.4633919536386,738.2522239369797,-11.151945448313228
1925.949953583759,738.2522239369797,-10.541805792287752
1934.4454741271325,738.2522239369797,-9.082315376882695
2571.6095148801446,738.2522239369797,-13.044882498269383
2667.5314822176806,857.5614860986124,-8.566480944751588
2681.489910376734,857.5614860986124,-6.8744727255051385
2685.390578306419,917.2161171794287,-9.530905493145838
2657.3700041910843,976.870748260245,-11.051968566306046
2670.419710536358,976.870748260245,-9.576176544924818
2683.469416881632,976.870748260245,-8.144008215599818
2674.59421301934,1036.5253793410614,-8.817681251162915
2554.2387436102586,1096.1800104218778,-13.348455556415
2564.924549032479,1096.1800104218778,-11.914054248184852
2575.610354454699,1096.1800104218778,-10.56946297685908
2607.6677707213594,1096.1800104218778,-10.869377592159008
2618.353576143579,1096.1800104218778,-13.501840210778637
2639.7251869880192,1096.1800104218778,-13.579995719297933
2650.4109924102395,1096.1800104218778,-11.293660215762745
2661.0967978324597,1096.1800104218778,-9.150967229047108
2671.7826032546795,1096.1800104218778,-7.732029911069553
630.8673782105645,1275.143903664327,-7.810944574538238
697.6321923411292,1275.143903664327,-8.825605777394335
719.8871303846507,1275.143903664327,-8.694564768815662
731.0145994064114,1275.143903664327,-10.360201720327643
764.3970064716938,1275.143903664327,-10.38635840313127
2756.213961366871,1275.143903664327,-10.301678341566767
2767.3414303886316,1275.143903664327,-9.035080386556597
2610.8386517822532,1334.7985347451431,-9.306206856437889
2620.4008508637207,1334.7985347451431,-6.041408967428019
2629.963049945188,1334.7985347451431,-3.7268809605299182
2649.0874481081223,1334.7985347451431,-4.569796359485233
2658.6496471895894,1334.7985347451431,-6.424009461367909
2668.211846271057,1334.7985347451431,-8.364570608615592
2696.8984435154584,1334.7985347451431,-9.060953643780621
2706.460642596926,1334.7985347451431,-7.835922878262439
2148.425242859854,1454.1077969067758,-9.264123077455823
2217.433555701023,1454.1077969067758,-8.465399284391326
2227.2918861069043,1454.1077969067758,-10.37068634447869
2237.150216512786,1454.1077969067758,-12.692296794689609
2256.866877324548,1454.1077969067758,-13.69049933526411
2266.7252077304292,1454.1077969067758,-9.715051609154957
2276.5835381363104,1454.1077969067758,-2.636551911306226
2286.441868542192,1454.1077969067758,2.2419214928536593
2296.3001989480736,1454.1077969067758,4.732028841281389
2316.016859759836,1454.1077969067758,4.311689348064389
2325.875190165717,1454.1077969067758,2.283514494981631
2335.733520571598,1454.1077969067758,-0.3684824367094386
2345.5918509774797,1454.1077969067758,-3.2031654527280224
2355.4501813833613,1454.1077969067758,-5.779398558793062
2365.3085117892424,1454.1077969067758,-7.720777484950531
1181.019911140268,1513.7624279875922,-5.512252754222551
1192.092823330056,1513.7624279875922,-7.1862941398142866
1203.1657355198436,1513.7624279875922,-8.679555030396381
2188.6549204109497,1513.7624279875922,-8.765907261727131
2199.727832600737,1513.7624279875922,-6.073240785105726
2210.800744790525,1513.7624279875922,-3.2580826490561896
2221.8736569803127,1513.7624279875922,-0.7710169623643173
2232.9465691701002,1513.7624279875922,1.402999553617598
2244.0194813598882,1513.7624279875922,3.2790168583430006
2255.0923935496758,1513.7624279875922,4.872084911265106
2266.1653057394637,1513.7624279875922,6.197253671837419
1888.5045602411005,1573.4170590684084,-15.310009044542177
1902.8050248765637,1573.4170590684084,-13.639197827018563
1917.105489512027,1573.4170590684084,-11.659123242197818
1931.4059541474899,1573.4170590684084,-9.75696013515651
1974.3073480538792,1573.4170590684084,-8.794680754365956
1988.6078126893422,1573.4170590684084,-11.352149949031432
2002.9082773248053,1573.4170590684084,-12.238683177043278
2017.2087419602685,1573.4170590684084,-4.610098644033168
2031.5092065957315,1573.4170590684084,3.3697350632907552
2045.8096712311947,1573.4170590684084,6.84948219354393
2060.1101358666574,1573.4170590684084,6.778100986814283
2074.410600502121,1573.4170590684084,4.104549683189772
2088.711065137584,1573.4170590684084,-0.2222134772414499
2103.011529773047,1573.4170590684084,-5.253230254391582
2117.31199440851,1573.4170590684084,-10.138483794430712
2131.612459043973,1573.4170590684084,-14.648426532476975
2145.912923679436,1573.4170590684084,-18.79349590876859
2160.213388314899,1573.4170590684084,-22.584648155880327
2174.5138529503624,1573.4170590684084,-26.032839506387056
2188.8143175858254,1573.4170590684084,-29.149026192863325
2203.114782221289,1573.4170590684084,-31.944164447884113
2217.4152468567518,1573.4170590684084,-34.429210504024
2231.7157114922147,1573.4170590684084,-36.615120593857846
2246.0161761276777,1573.4170590684084,-38.51285094996044
2260.3166407631406,1573.4170590684084,-40.133357804906524
2503.4245395660137,1573.4170590684084,-35.8833680269966
2517.7250042014766,1573.4170590684084,-34.38736763141119
2532.0254688369396,1573.4170590684084,-32.82231215358985
2546.3259334724025,1573.4170590684084,-31.199157826107438
2560.6263981078655,1573.4170590684084,-29.528860881538634
2574.926862743329,1573.4170590684084,-27.822377552458278
2589.227327378792,1573.4170590684084,-26.090664071441097
2603.5277920142553,1573.4170590684084,-24.344676671061805
2617.8282566497182,1573.4170590684084,-22.59537158389533
2632.128721285181,1573.4170590684084,-20.853705042516324
2646.429185920644,1573.4170590684084,-19.130633279499577
2660.729650556107,1573.4170590684084,-17.437112527419856
2675.0301151915705,1573.4170590684084,-15.784099018851919
2689.3305798270335,1573.4170590684084,-14.182548986370634
2703.631044462497,1573.4170590684084,-12.643418662550573
1934.8803895515978,1633.0716901492249,-9.375993498358433
1946.7984528658324,1633.0716901492249,-5.730941470800517
1958.716516180067,1633.0716901492249,-0.9531407526607291
1970.6345794943018,1633.0716901492249,3.458556785593776
1982.5526428085363,1633.0716901492249,7.514793142933696
1994.470706122771,1633.0716901492249,11.226210318329985
2006.3887694370055,1633.0716901492249,14.603450310753503
2018.30683275124,1633.0716901492249,17.657155119175126
2030.2248960654747,1633.0716901492249,20.397966742565707
2042.1429593797093,1633.0716901492249,22.836527179896116
2054.0610226939443,1633.0716901492249,24.983478430137296
2065.9790860081785,1633.0716901492249,26.849462492259878
2077.8971493224135,1633.0716901492249,28.44512136523502
2089.815212636648,1633.0716901492249,29.781097048033384
2256.6680990359328,1633.0716901492249,27.17754106234021
2268.586162350168,1633.0716901492249,25.895308768991697
2280.504225664402,1633.0716901492249,24.523665269000382
2292.422288978637,1633.0716901492249,23.073252561336957
2304.340352292871,1633.0716901492249,21.55471264497251
2316.258415607106,1633.0716901492249,19.97868751887767
2328.1764789213407,1633.0716901492249,18.355819182023495
2340.0945422355753,1633.0716901492249,16.69674963338072
2352.01260554981,1633.0716901492249,15.012120871920374
2363.9306688640445,1633.0716901492249,13.312574896613143
2375.8487321782795,1633.0716901492249,11.608753706429908
2387.7667954925137,1633.0716901492249,9.911299300341682
2399.6848588067487,1633.0716901492249,8.23085367731916
2411.602922120983,1633.0716901492249,6.578058836333426
2423.520985435218,1633.0716901492249,4.9635567763549915
2435.4390487494525,1633.0716901492249,3.397989496355109
2447.357112063687,1633.0716901492249,1.8919989953044478
2459.2751753779216,1633.0716901492249,0.4562272721738623
2471.1932386921562,1633.0716901492249,-0.8986836740657225
2483.1113020063913,1633.0716901492249,-2.1620918444436086
1206.0746858922148,1692.726321230041,-6.929639451403738
1880.6573738707382,1692.726321230041,-8.431841555637723
1894.424367502953,1692.726321230041,-6.750579042658161
1908.1913611351679,1692.726321230041,-4.945597268767261
1921.9583547673824,1692.726321230041,-3.331577545073366
1360.8329941118943,1752.3809523108575,-9.283138155178378
1371.727038338836,1752.3809523108575,-10.734788294335642
1382.621082565778,1752.3809523108575,-12.44587222552627
1393.5151267927197,1752.3809523108575,-13.875935372156453
1415.3032152466033,1752.3809523108575,-13.67190019650331
1426.197259473545,1752.3809523108575,-11.92449908127306
1513.3496132890796,1752.3809523108575,-12.618371447707268
1344.3007971882016,1812.0355833916738,-6.603450329460662
1350.4632621739497,1812.0355833916738,-7.321215864286211
1356.6257271596976,1812.0355833916738,-8.02316508514214
1886.5977159340168,1812.0355833916738,-10.913561654427593
1892.7601809197647,1812.0355833916738,-10.249527504288947
1898.9226459055126,1812.0355833916738,-9.491754517568912
1905.0851108912607,1812.0355833916738,-8.678106351905623
1911.2475758770083,1812.0355833916738,-7.874049047598752
1917.4100408627564,1812.0355833916738,-7.143971224012007
1418.8431722747907,1871.6902144724902,-6.110148338955471
1428.3045119683102,1871.6902144724902,-7.350503025956103
1437.7658516618296,1871.6902144724902,-8.52575921395824
1863.5261378702016,1871.6902144724902,-11.49728245422018
1872.9874775637209,1871.6902144724902,-10.399426031591133
1891.9101569507598,1871.6902144724902,-8.723654961568903
1901.371496644279,1871.6902144724902,-7.300569594446781
1910.8328363377984,1871.6902144724902,-5.3497394501369575
1920.2941760313179,1871.6902144724902,-3.479080572162227
1929.755515724837,1871.6902144724902,-1.7383806503075612
1939.2168554183565,1871.6902144724902,-0.12415165936992036
1948.678195111876,1871.6902144724902,1.3670944258536113
1958.1395348053952,1871.6902144724902,2.738845630565957
1967.6008744989147,1871.6902144724902,3.994589979970143
1977.062214192434,1871.6902144724902,5.137815499269091
1986.5235538859533,1871.6902144724902,6.172010213665732
1859.9067598323636,1990.9994766341229,-8.90566698665486
535.5834641334694,966.492829166034,-7.715132491680179
535.5834641334694,982.0078226465087,-5.677050505544861
594.4531658579592,1043.881856498329,-8.847670334769571
594.4531658579592,1055.4040895390885,-7.4404619138826416
594.4531658579592,1159.1041869059238,-7.080608398118709
712.1925693069388,1292.2500719736631,-8.62684503556207
712.1925693069388,1304.4367616879551,-6.924413011931001
712.1925693069388,1316.6234514022472,-5.13710391567827
771.0622710314285,1351.6819571324772,-7.1759625998105445
771.0622710314285,1361.538461484,-6.0
947.6713762048979,1458.7391201486607,-7.2008113795394895
947.6713762048979,1469.0190542813946,-6.022684894259056
1006.5410779293877,520.5128204920001,-6.0
1006.5410779293877,531.460674136045,-7.717930436422736
1006.5410779293877,542.4085277800899,-9.289571344800763
1006.5410779293877,553.356381424135,-10.67871439722675
1006.5410779293877,564.3042350681799,-11.894621201965649
1124.2804813783673,492.3721980128805,-7.710518409247017
1124.2804813783673,500.58055150392454,-8.739973674784276
1124.2804813783673,508.78890499496856,-9.824592824268501
1183.1501831028572,1708.264157836115,-6.23084493848951
1183.1501831028572,1718.2069728145034,-4.962017847639862
1183.1501831028572,1728.1497877928919,-3.716496183719247
1242.019884827347,367.57872998013426,-5.112322013811878
1242.019884827347,377.628635331651,-6.492414622732351
1242.019884827347,387.67854068316785,-8.075266643266351
1242.019884827347,397.7284460346846,-9.430932397283511
1242.019884827347,1603.717088216698,-9.109792826785656
1359.7592882763265,1811.2545172223356,-6.931771572213844
1418.6289900008162,1861.7419616674924,-7.381813608828519
1654.1077968987754,2350.28991099992,-10.18877999625577
1654.1077968987754,2362.4532920070355,-7.769517034567322
1654.1077968987754,2374.6166730141513,-4.822216617253093
1830.716902072245,560.1052513492227,-7.845615642978068
1830.716902072245,569.7122382484017,-8.994296756240256
1830.716902072245,579.3192251475808,-10.264198239749344
1830.716902072245,588.9262120467598,-11.415076840407172
1830.716902072245,617.7471727442969,-11.752814515399495
1830.716902072245,627.354159643476,-10.444270541303249
1830.716902072245,1780.1925875449608,-12.345055817937677
1830.716902072245,1876.2624565367512,-12.864999134878921
1830.716902072245,1885.8694434359302,-14.146569032668637
1830.716902072245,1933.9043779318254,-13.717735756634564
1830.716902072245,1943.5113648310044,-12.650717439697258
1830.716902072245,1953.1183517301833,-11.423286195251258
1830.716902072245,1962.7253386293626,-10.169962697243376
1830.716902072245,1972.3323255285416,-9.071253680620757
1889.5866037967346,1609.7209349577513,-12.78859799831276
1889.5866037967346,1618.9063947452532,-11.410966477376911
1889.5866037967346,1628.0918545327554,-9.609968672876606
1889.5866037967346,1637.2773143202573,-7.636912436183534
1889.5866037967346,1646.4627741077593,-5.75688357932531
1889.5866037967346,1655.6482338952615,-4.234967914329555
1889.5866037967346,1683.2046132577675,-4.468758190794073
1889.5866037967346,1692.3900730452694,-7.030153413524989
1889.5866037967346,1701.5755328327714,-10.360352418251118
1889.5866037967346,1710.7609926202733,-9.6478836865305
1889.5866037967346,1719.9464524077755,-6.233656932275025
1889.5866037967346,1729.1319121952774,-2.6671955165388526
1889.5866037967346,1738.3173719827794,0.20261255417493657
1889.5866037967346,1747.5028317702815,2.038058417721322
1889.5866037967346,1765.8737513452854,1.2554289522477076
1889.5866037967346,1775.0592111327876,-2.0378636623043214
1889.5866037967346,1784.2446709202895,-7.715953055087688
1889.5866037967346,1793.4301307077915,-13.842502603765213
1889.5866037967346,1802.6155904952934,-16.695893709696854
1889.5866037967346,1820.9865100702975,-15.288074621928578
1889.5866037967346,1830.1719698577995,-12.580118310452843
1889.5866037967346,1839.3574296453016,-9.571633408732048
1889.5866037967346,1848.5428894328036,-7.039246857878446
1889.5866037967346,1866.9138090078077,-6.509276573220859
1889.5866037967346,1876.0992687953096,-9.741251051247577
1889.5866037967346,1885.2847285828116,-10.013248209312536
1889.5866037967346,1894.4701883703137,-7.01262004172822
1889.5866037967346,1903.6556481578157,-4.4730631546333965
1889.5866037967346,1931.2120275203217,-4.924585740824407
1889.5866037967346,1940.3974873078237,-6.270339717634366
1889.5866037967346,1949.5829470953256,-7.453907928342163
1889.5866037967346,1977.1393264578317,-6.5298461035949344
1889.5866037967346,2023.0666253953418,-7.046062687675848
1889.5866037967346,2032.2520851828438,-8.028874152313175
1889.5866037967346,2041.4375449703457,-9.033111460317448
1948.4563055212245,1538.547417433244,-12.27918674762137
1948.4563055212245,1549.5767389884404,-10.870822239760882
1948.4563055212245,1560.6060605436364,-9.20624158979951
1948.4563055212245,1571.6353820988325,-7.584392724570382
1948.4563055212245,1615.7526683196174,-7.51779015063909
1948.4563055212245,1626.7819898748135,-9.882351301133658
1948.4563055212245,1637.81131143001,-8.676441300426468
1948.4563055212245,1648.840632985206,-5.143483209881414
1948.4563055212245,1659.869954540402,-2.1303573613415634
1948.4563055212245,1670.8992760955985,0.1276537459102823
1948.4563055212245,1681.9285976507945,1.7022951000996074
1948.4563055212245,1748.1045269819715,0.8170977515622653
1948.4563055212245,1759.1338485371675,-0.3829894953665782
1948.4563055212245,1770.163170092364,-1.6924865895525372
1948.4563055212245,1781.19249164756,-3.0396485427698146
1948.4563055212245,1792.221813202756,-4.352730366792816
1948.4563055212245,1803.2511347579525,-5.559987073395909
2007.3260072457142,1467.7747712336484,-14.13008747947412
2007.3260072457142,1479.603143865568,-11.208495781293935
2007.3260072457142,1491.4315164974876,-7.119076661427667
2007.3260072457142,1503.2598891294072,-2.950500050506068
2007.3260072457142,1515.0882617613267,0.09419383067816423
2007.3260072457142,1538.745007025166,-2.000227479336239
2007.3260072457142,1550.5733796570855,-9.479500010732416
2007.3260072457142,1562.4017522890053,-11.805995933800789
2007.3260072457142,1574.230124920925,-6.074841849390003
2007.3260072457142,1586.0584975528445,0.4554474760096862
2007.3260072457142,1597.8868701847641,6.315028216032184
2007.3260072457142,1609.7152428166837,11.530309463986725
2007.3260072457142,1621.5436154486033,16.127702185430017
2007.3260072457142,1633.371988080523,20.133617345918783
2007.3260072457142,1645.2003607124425,23.574465911009728
2007.3260072457142,1657.028733344362,26.476658846259575
2007.3260072457142,1668.8571059762817,28.866607117225044
2007.3260072457142,1680.6854786082013,30.77072168946284
2007.3260072457142,1692.5138512401209,32.215413528529666
2007.3260072457142,1787.1408322954776,30.403045713715628
2007.3260072457142,1798.9692049273972,28.901426404296014
2007.3260072457142,1810.7975775593168,27.204494017272566
2007.3260072457142,1822.6259501912364,25.338659518202036
2007.3260072457142,1834.454322823156,23.330333872641134
2007.3260072457142,1846.2826954550756,21.20592804614654
2007.3260072457142,1858.1110680869951,18.991853004275008
2007.3260072457142,1869.9394407189147,16.714519712583225
2007.3260072457142,1881.7678133508343,14.400339136627906
2007.3260072457142,1893.596185982754,12.07572224196582
2007.3260072457142,1905.4245586146735,9.767079994153605
2007.3260072457142,1917.252931246593,7.500823358748036
2007.3260072457142,1929.0813038785127,5.303363301305794
2007.3260072457142,1940.9096765104323,3.201110787383584
2007.3260072457142,1952.7380491423519,1.2204767825381566
2007.3260072457142,1964.5664217742715,-0.6121277476737816
2007.3260072457142,1976.394794406191,-2.2702918376955665
2007.3260072457142,1988.2231670381107,-3.7276045219703917
2066.195708970204,2042.6305108941294,-9.041765143854406
2066.195708970204,2055.9121932400285,-7.594027048379104
2066.195708970204,2069.1938755859283,-6.004617128626123
2066.195708970204,2082.475557931827,-4.381682884313983
2066.195708970204,2122.3206049695254,-5.4238236512976385
2066.195708970204,2135.6022873154243,-9.88739490842958
2066.195708970204,2148.883969661324,-13.764581422770432
2066.195708970204,2188.7290166990215,-14.663875154869107
2066.195708970204,2202.010699044921,-13.015040159359405
2066.195708970204,2215.29238139082,-11.206330264228509
2066.195708970204,2494.207710654705,-9.369678386963917
2125.065410694694,668.7982699763373,-6.341949149726972
2125.065410694694,678.7766450145542,-8.689557555833234
2125.065410694694,688.7550200527711,-11.9985005019079
2125.065410694694,748.6252702820723,-12.914409099955423
2125.065410694694,758.6036453202892,-14.845700504552942
2125.065410694694,1506.9817731865542,-10.431902429631464
2125.065410694694,1516.960148224771,-8.947735691854705
2125.065410694694,1526.938523262988,-7.510343030057556
2125.065410694694,2295.2734012056862,-8.92332756851164
2125.065410694694,2305.2517762439034,-7.592425608263828
2125.065410694694,2315.2301512821205,-6.0221136298467846
2242.8048141436734,523.8332410784749,-3.657583989624092
2242.8048141436734,540.9149603177842,-6.097850935931929
2242.8048141436734,557.9966795570936,-9.400804922011666
2242.8048141436734,575.0783987964029,-13.095529147625083
2242.8048141436734,592.1601180357122,-15.977429676111402
2242.8048141436734,626.323556514331,-14.28283718319478
2242.8048141436734,643.4052757536404,-8.579441603734637
2242.8048141436734,660.4869949929497,-7.912615674541823
2242.8048141436734,677.568714232259,-11.180868248833798
2242.8048141436734,694.6504334715685,-14.958259536451347
2242.8048141436734,711.7321527108777,-18.12487832910854
2242.8048141436734,728.8138719501871,-21.17857612240061
